ply
format ascii 1.0
element vertex 1592
property float32 x
property float32 y
property float32 z
property float32 I
end_header
8.5942 -2.0916 -0.2491 0.9652
10.0660 -2.0692 -0.2894 0.9597
25.8103 -3.3945 -0.7330 0.9011
25.8755 -2.4598 -0.7319 0.9012
25.9198 -1.5256 -0.7311 0.9013
25.9461 0.3422 -0.7306 0.9014
25.5247 5.9526 -0.7380 0.9004
25.3803 6.8905 -0.7405 0.9001
25.2143 7.8298 -0.7434 0.8997
25.0263 8.7705 -0.7467 0.8993
24.5829 10.6568 -0.7544 0.8983
24.3268 11.6027 -0.7589 0.8978
22.6836 16.3651 -0.7876 0.8941
14.2707 11.0977 -0.5090 0.9302
20.8972 20.2200 -0.8188 0.8902
16.7706 20.1590 -0.7384 0.9004
15.6737 21.8656 -0.7575 0.8979
13.7980 24.4397 -0.7903 0.8938
13.1069 25.3008 -0.8023 0.8922
9.9777 28.7517 -0.8570 0.8853
8.1739 30.4749 -0.8884 0.8814
7.2066 31.3337 -0.9053 0.8793
5.1320 33.0416 -0.9415 0.8748
4.0209 33.8886 -0.9609 0.8724
2.8581 34.7299 -0.9812 0.8698
1.6415 35.5637 -1.0025 0.8672
0.3688 36.3885 -1.0247 0.8645
-2.3532 38.0051 -1.0722 0.8587
-5.3261 39.5640 -1.1241 0.8524
-10.2958 41.7507 -1.2108 0.8419
-13.9756 43.0719 -1.2751 0.8343
-17.9680 44.2482 -1.3447 0.8260
-20.0859 44.7712 -1.3817 0.8217
-7.7051 7.7640 -0.3080 0.9572
-9.5414 -4.6762 -0.5389 0.9583
-3.9372 -2.1086 -0.2265 0.9823
-8.1357 -4.7415 -0.4776 0.9630
-22.6281 -16.6946 -1.4261 0.8935
-5.3868 -4.6078 -0.3595 0.9720
-20.0424 -18.4332 -1.3810 0.8967
-19.1469 -18.9257 -1.3653 0.8978
-18.2395 -19.3749 -1.3495 0.8989
-4.0258 -4.5971 -0.3099 0.9758
-16.3991 -20.1452 -1.3174 0.9012
-15.4710 -20.4674 -1.3012 0.9023
-13.6107 -20.9897 -1.2687 0.9047
-12.6827 -21.1918 -1.2525 0.9058
-2.5450 -4.6222 -0.2676 0.9791
-9.9291 -21.5741 -1.2044 0.9093
-9.0269 -21.6308 -1.1887 0.9104
-8.1348 -21.6541 -1.1731 0.9115
-7.2541 -21.6454 -1.1577 0.9126
-1.1827 -4.6052 -0.2411 0.9811
-4.6909 -21.4392 -1.1130 0.9159
-3.8658 -21.3147 -1.0986 0.9169
-2.2639 -20.9893 -1.0706 0.9189
-0.5750 -16.2062 -0.8224 0.9371
0.0106 -20.3283 -1.0309 0.9218
0.1686 -4.6159 -0.2342 0.9817
2.1223 -19.4862 -0.9941 0.9245
0.7768 -3.5324 -0.1834 0.9856
4.6762 -18.1290 -0.9495 0.9278
5.2675 -17.7539 -0.9392 0.9285
6.9291 -16.5554 -0.9102 0.9306
7.4457 -16.1339 -0.9011 0.9313
7.9505 -15.7153 -0.8932 0.9319
8.6683 -15.7044 -0.9097 0.9307
2.9994 -4.6150 -0.2791 0.9782
1.5671 -2.0687 -0.1316 0.9897
4.3705 -4.6328 -0.3230 0.9748
13.3448 -13.1631 -0.9506 0.9277
13.7157 -12.5881 -0.9441 0.9281
14.0676 -12.0079 -0.9380 0.9286
2.9123 -2.1439 -0.1834 0.9856
3.0147 -2.0563 -0.1851 0.9855
4.3358 -2.1194 -0.2448 0.9809
5.7753 -2.0865 -0.3114 0.9757
6.8307 -2.1934 -0.3638 0.9717
16.8728 -4.7555 -0.8890 0.9322
8.5964 -2.0921 -0.4487 0.9652
17.1820 -2.8920 -0.8836 0.9326
17.3395 -1.0205 -0.8809 0.9328
17.3584 -0.3959 -0.8805 0.9328
17.3606 0.2289 -0.8805 0.9328
17.3149 1.4782 -0.8813 0.9328
17.0220 3.9697 -0.8864 0.9324
16.7740 5.2088 -0.8907 0.9321
16.4574 6.4413 -0.8963 0.9317
16.2732 7.0545 -0.8995 0.9314
15.0873 10.0798 -0.9202 0.9299
13.5814 9.7983 -0.8493 0.9351
12.6209 9.8147 -0.8108 0.9380
12.0328 10.8323 -0.8211 0.9372
11.7141 11.3345 -0.8266 0.9368
11.3787 11.8318 -0.8325 0.9364
0.9317 1.2998 -0.0811 0.9936
9.0063 14.6911 -0.8739 0.9333
8.5492 15.1427 -0.8819 0.9327
8.0741 15.5857 -0.8902 0.9321
7.5807 16.0196 -0.8988 0.9315
5.9899 17.2605 -0.9266 0.9294
5.4223 17.6515 -0.9365 0.9287
4.8360 18.0301 -0.9467 0.9280
4.2308 18.3954 -0.9573 0.9272
0.9228 19.9930 -1.0150 0.9230
0.2054 20.2602 -1.0275 0.9221
-0.5303 20.5075 -1.0404 0.9211
-2.8432 21.1199 -1.0807 0.9182
-4.4690 21.4085 -1.1091 0.9161
-6.1561 21.5901 -1.1386 0.9140
-3.0285 9.3337 -0.4976 0.9615
-9.6872 21.5927 -1.2002 0.9096
-13.3626 21.0475 -1.2644 0.9050
-14.2923 20.8169 -1.2806 0.9038
-5.9719 8.0605 -0.5088 0.9606
-5.9266 7.4252 -0.4818 0.9627
-9.5379 -4.6745 -0.7788 0.9583
-3.9357 -2.1078 -0.3274 0.9823
-8.1308 -4.7386 -0.6900 0.9630
-16.0669 -11.8539 -1.4640 0.9230
-14.4049 -13.2483 -1.4350 0.9245
-6.5482 -15.6912 -1.2467 0.9341
-5.8951 -15.6923 -1.2291 0.9350
-4.6385 -15.6937 -1.1999 0.9365
-2.2664 -15.6929 -1.1626 0.9384
-0.5567 -15.6895 -1.1511 0.9390
0.0082 -15.6879 -1.1503 0.9390
0.0790 -2.1641 -0.1588 0.9914
0.1503 -2.0691 -0.1521 0.9917
0.2244 -2.0607 -0.1520 0.9917
2.7784 -15.2288 -1.1350 0.9398
0.7765 -3.5315 -0.2651 0.9856
4.3002 -14.4934 -1.1085 0.9412
5.7075 -13.6367 -1.0839 0.9424
6.5796 -13.0056 -1.0687 0.9432
10.1177 -9.2859 -1.0069 0.9464
5.8229 -4.6187 -0.5449 0.9706
3.0152 -2.0567 -0.2676 0.9855
11.3650 -7.1668 -0.9852 0.9475
5.3426 -2.1505 -0.4223 0.9772
9.6367 -3.0944 -0.7421 0.9602
11.0936 -3.1267 -0.8451 0.9548
12.9478 -1.7028 -0.9575 0.9490
12.9905 -1.2349 -0.9568 0.9490
13.0369 0.1719 -0.9560 0.9491
12.9997 1.1098 -0.9566 0.9490
12.8414 2.5113 -0.9594 0.9489
12.7613 2.9760 -0.9608 0.9488
12.5600 3.9002 -0.9643 0.9486
12.3038 4.8156 -0.9688 0.9484
12.1550 5.2692 -0.9714 0.9483
11.8161 6.1670 -0.9773 0.9479
11.4219 7.0501 -0.9842 0.9476
11.2040 7.4854 -0.9880 0.9474
10.7264 8.3415 -0.9963 0.9470
10.4074 8.7120 -0.9952 0.9470
9.6986 8.7309 -0.9568 0.9490
7.8054 9.3824 -0.8949 0.9522
7.5063 9.7135 -0.9001 0.9520
0.8601 1.2959 -0.1140 0.9938
0.8032 1.3102 -0.1127 0.9939
0.7672 1.3588 -0.1144 0.9938
5.4593 11.5367 -0.9358 0.9501
5.0766 11.8093 -0.9425 0.9498
4.2767 12.3237 -0.9565 0.9490
3.8597 12.5645 -0.9637 0.9486
2.5426 13.2151 -0.9867 0.9475
2.0822 13.4064 -0.9948 0.9470
1.6117 13.5838 -1.0030 0.9466
1.1313 13.7470 -1.0114 0.9462
0.1422 14.0282 -1.0286 0.9453
-0.8821 14.2455 -1.0465 0.9444
-1.4062 14.3287 -1.0557 0.9439
-2.4761 14.4415 -1.0743 0.9429
-3.0205 14.4699 -1.0838 0.9424
-3.5706 14.4790 -1.0934 0.9419
-3.0255 9.3243 -0.7188 0.9614
-5.2467 14.3849 -1.1227 0.9404
-6.3778 14.2160 -1.1424 0.9394
-7.5115 13.9582 -1.1622 0.9384
-8.6398 13.6086 -1.1819 0.9374
-9.1992 13.3988 -1.1917 0.9369
-6.3085 6.3566 -0.6566 0.9647
-9.5344 -4.6728 -1.0194 0.9582
-3.9343 -2.1070 -0.4285 0.9822
-8.1259 -4.7357 -0.9029 0.9629
-12.3132 -7.7827 -1.3985 0.9431
-2.5900 -2.0588 -0.3176 0.9868
-2.5093 -2.1464 -0.3170 0.9868
-10.4756 -9.6346 -1.3664 0.9444
-10.0697 -9.9534 -1.3593 0.9447
-8.7919 -10.8003 -1.3370 0.9456
-1.1431 -2.0761 -0.2275 0.9905
-1.0925 -2.1651 -0.2328 0.9903
-4.6315 -12.3287 -1.2644 0.9485
-3.6841 -12.4647 -1.2478 0.9491
-2.7415 -12.5299 -1.2314 0.9498
-2.2738 -12.5368 -1.2232 0.9501
-1.8091 -12.5268 -1.2151 0.9504
-0.8917 -12.4581 -1.1991 0.9510
0.0791 -2.1660 -0.2081 0.9913
0.3136 -2.1558 -0.2091 0.9913
2.9453 -11.4187 -1.1321 0.9537
1.5564 -4.6282 -0.4688 0.9806
4.4474 -10.6261 -1.1059 0.9548
4.8000 -10.4010 -1.0998 0.9550
5.4762 -9.9213 -1.0880 0.9555
5.7994 -9.6674 -1.0823 0.9557
3.0003 -4.6164 -0.5286 0.9781
1.5030 -2.1399 -0.2511 0.9895
1.5676 -2.0693 -0.2492 0.9896
7.2607 -8.2737 -1.0568 0.9567
4.3719 -4.6343 -0.6116 0.9747
0.7684 -0.5657 -0.0916 0.9962
0.8094 -0.5104 -0.0919 0.9962
0.8695 -0.5056 -0.0966 0.9960
4.3390 -2.1209 -0.4637 0.9808
8.4770 -3.7720 -0.8908 0.9634
8.7814 -2.8197 -0.8855 0.9636
8.8629 -2.4979 -0.8840 0.9637
10.3559 -1.3620 -1.0028 0.9589
10.4161 -0.6131 -1.0017 0.9589
10.3993 0.8878 -1.0020 0.9589
10.3666 1.2621 -1.0026 0.9589
10.3224 1.6355 -1.0034 0.9589
10.1998 2.3787 -1.0055 0.9588
10.1213 2.7479 -1.0069 0.9587
10.0315 3.1151 -1.0084 0.9587
9.8177 3.8426 -1.0122 0.9585
9.6938 4.2023 -1.0143 0.9584
9.4119 4.9122 -1.0193 0.9582
9.2540 5.2619 -1.0220 0.9581
9.0849 5.6076 -1.0250 0.9580
8.9045 5.9491 -1.0281 0.9579
8.5102 6.6180 -1.0350 0.9576
8.2964 6.9449 -1.0387 0.9575
8.0715 7.2662 -1.0426 0.9573
7.5889 7.8911 -1.0511 0.9570
7.3313 8.1940 -1.0556 0.9568
7.0428 8.4657 -1.0572 0.9567
0.9317 1.2997 -0.1535 0.9936
0.8600 1.2959 -0.1493 0.9938
0.7318 1.4126 -0.1527 0.9936
3.9576 9.2061 -0.9620 0.9605
2.6572 9.9070 -0.9847 0.9596
2.3131 10.0571 -0.9907 0.9594
1.9618 10.1965 -0.9969 0.9591
1.6036 10.3249 -1.0031 0.9589
1.2389 10.4417 -1.0095 0.9586
0.8680 10.5468 -1.0160 0.9584
0.4911 10.6396 -1.0225 0.9581
-0.2789 10.7873 -1.0360 0.9576
-1.0680 10.8821 -1.0498 0.9570
-2.2794 10.9193 -1.0709 0.9562
-3.0996 10.8705 -1.0852 0.9556
-3.9247 10.7604 -1.0996 0.9550
-5.9755 10.2060 -1.1354 0.9536
-5.9077 7.9738 -0.9527 0.9609
-5.8565 7.3373 -0.9013 0.9630
-5.8335 6.7920 -0.8596 0.9647
-9.0458 -4.4334 -1.1966 0.9602
-3.9328 -2.1062 -0.5299 0.9822
-6.7553 -4.6181 -0.9720 0.9676
-9.0929 -6.7085 -1.3423 0.9555
-7.5945 -8.0673 -1.3161 0.9564
-4.0298 -4.6017 -0.7266 0.9757
-6.2449 -8.9109 -1.2925 0.9571
-5.8920 -9.0863 -1.2864 0.9573
-1.1429 -2.0758 -0.2815 0.9905
-4.4383 -9.6435 -1.2610 0.9581
-4.0674 -9.7466 -1.2545 0.9584
-3.3211 -9.9099 -1.2415 0.9588
-1.1822 -4.6031 -0.5645 0.9810
-2.1987 -10.0490 -1.2219 0.9594
-1.8260 -10.0677 -1.2154 0.9596
-1.0856 -10.0648 -1.2025 0.9600
-0.7189 -10.0436 -1.1961 0.9603
-0.3552 -10.0095 -1.1897 0.9605
0.0792 -2.1679 -0.2577 0.9913
0.1503 -2.0697 -0.2465 0.9917
2.7204 -9.1688 -1.1361 0.9622
4.2180 -8.3376 -1.1099 0.9631
4.7653 -7.9437 -1.1004 0.9634
1.5037 -2.1408 -0.3108 0.9895
1.5678 -2.0697 -0.3084 0.9896
6.4217 -6.3342 -1.0714 0.9643
6.6236 -6.0790 -1.0679 0.9644
0.7277 -0.6212 -0.1137 0.9962
0.7482 -0.5935 -0.1134 0.9962
0.7891 -0.5383 -0.1135 0.9962
0.8695 -0.5055 -0.1195 0.9960
4.3406 -2.1217 -0.5739 0.9807
7.0437 -3.1343 -0.9158 0.9694
7.1389 -2.8736 -0.9141 0.9695
7.3040 -2.3453 -0.9112 0.9696
7.3738 -2.0782 -0.9100 0.9696
7.4350 -1.8095 -0.9090 0.9696
8.4441 -1.7358 -1.0240 0.9659
8.5819 -1.4445 -1.0337 0.9656
8.6531 -0.8226 -1.0325 0.9656
8.6740 -0.5105 -1.0321 0.9656
8.5460 1.6713 -1.0344 0.9655
1.5863 0.4307 -0.1953 0.9934
8.2578 2.8939 -1.0394 0.9654
8.0556 3.4921 -1.0429 0.9653
1.7164 0.8958 -0.2300 0.9922
1.6528 0.9398 -0.2258 0.9924
1.4726 0.9838 -0.2104 0.9929
7.0477 5.4807 -1.0605 0.9647
0.8442 1.2720 -0.1813 0.9939
0.8042 1.3119 -0.1828 0.9938
0.7695 1.3630 -0.1859 0.9937
3.9992 8.4511 -1.1106 0.9630
3.3812 8.7172 -1.1106 0.9630
3.0264 8.7209 -1.0965 0.9635
2.3409 8.7274 -1.0733 0.9643
1.6802 8.7327 -1.0563 0.9648
1.3567 8.7349 -1.0500 0.9650
0.4034 8.7400 -1.0393 0.9654
-0.2261 8.7450 -1.0391 0.9654
-0.8602 8.7647 -1.0461 0.9651
-1.5042 8.7735 -1.0574 0.9648
-1.8287 8.7603 -1.0630 0.9646
-2.1572 8.7476 -1.0702 0.9644
-2.8361 8.7408 -1.0916 0.9637
-3.1876 8.7394 -1.1050 0.9632
-4.6984 8.7309 -1.1777 0.9608
-5.1100 8.7278 -1.2014 0.9601
-5.5389 8.7244 -1.2275 0.9592
-5.9872 8.7204 -1.2565 0.9583
-7.1706 8.3489 -1.3073 0.9566
-7.5080 8.1306 -1.3146 0.9564
-3.9314 -2.1055 -0.6319 0.9821
-6.9173 -4.3722 -1.1595 0.9675
-6.7372 -4.6057 -1.1563 0.9676
-6.5484 -4.8313 -1.1530 0.9677
-2.5892 -2.0581 -0.4686 0.9867
-6.2537 -6.6430 -1.2927 0.9638
-5.1586 -7.3609 -1.2736 0.9643
-1.2304 -2.0559 -0.3395 0.9904
-1.1428 -2.0755 -0.3357 0.9905
-1.0915 -2.1630 -0.3433 0.9903
-3.3772 -8.0927 -1.2425 0.9652
-3.0706 -8.1736 -1.2371 0.9653
-2.4533 -8.3003 -1.2264 0.9656
-1.2154 -8.4155 -1.2048 0.9662
-0.6016 -8.4057 -1.1940 0.9665
0.7759 -3.5285 -0.5119 0.9855
2.0240 -7.8469 -1.1482 0.9678
3.0786 -7.3555 -1.1298 0.9683
3.5721 -7.0608 -1.1212 0.9685
3.0013 -4.6178 -0.7803 0.9780
1.5681 -2.0700 -0.3679 0.9896
4.4721 -5.0961 -0.9607 0.9730
4.3733 -4.6358 -0.9030 0.9746
4.7984 -4.7331 -0.9550 0.9731
0.7292 -0.6224 -0.1358 0.9961
0.7488 -0.5939 -0.1354 0.9961
0.7689 -0.5661 -0.1353 0.9961
0.7894 -0.5384 -0.1354 0.9961
0.8695 -0.5055 -0.1425 0.9959
4.3422 -2.1225 -0.6848 0.9807
5.7804 -2.0884 -0.8708 0.9755
6.3082 -1.7779 -0.9286 0.9739
7.1370 -1.7369 -1.0408 0.9708
1.4945 -0.2516 -0.2147 0.9939
1.4714 -0.1935 -0.2103 0.9940
7.4352 -0.1696 -1.0538 0.9704
7.4363 0.0981 -1.0537 0.9704
7.4129 0.6328 -1.0541 0.9704
7.3552 1.1654 -1.0552 0.9704
7.3135 1.4303 -1.0559 0.9703
7.2634 1.6939 -1.0568 0.9703
7.2047 1.9560 -1.0578 0.9703
7.1375 2.2164 -1.0590 0.9703
7.0620 2.4749 -1.0603 0.9702
6.9780 2.7311 -1.0617 0.9702
6.7850 3.2361 -1.0651 0.9701
6.5589 3.7294 -1.0691 0.9700
6.4336 3.9711 -1.0712 0.9699
6.0095 4.6733 -1.0786 0.9697
4.7498 6.1465 -1.1006 0.9691
3.8721 6.8585 -1.1159 0.9687
3.6362 7.0192 -1.1201 0.9686
2.8919 7.4556 -1.1331 0.9682
2.6322 7.5850 -1.1376 0.9681
1.8220 7.9218 -1.1517 0.9677
1.5423 8.0160 -1.1566 0.9676
1.2582 8.1009 -1.1616 0.9674
0.6783 8.2416 -1.1717 0.9671
-0.2163 8.3651 -1.1856 0.9668
-1.1309 8.4005 -1.2010 0.9663
-1.4390 8.3927 -1.2065 0.9662
-1.7482 8.3749 -1.2122 0.9660
-2.3691 8.3087 -1.2242 0.9657
-2.6799 8.2593 -1.2303 0.9655
-3.2955 8.1155 -1.2411 0.9652
-3.9036 7.9247 -1.2517 0.9649
-4.5006 7.6869 -1.2621 0.9647
-4.7936 7.5504 -1.2672 0.9645
-5.0823 7.4024 -1.2722 0.9644
-5.3661 7.2428 -1.2772 0.9642
-5.6447 7.0719 -1.2821 0.9641
-5.9173 6.8897 -1.2868 0.9640
-6.1837 6.6964 -1.2915 0.9638
-6.4431 6.4923 -1.2960 0.9637
-3.9299 -2.1047 -0.7344 0.9821
-5.9966 -3.4948 -1.1434 0.9723
-5.7042 -3.8995 -1.1383 0.9724
-2.5887 -2.0578 -0.5448 0.9867
-2.5064 -2.1439 -0.5434 0.9867
-5.0335 -4.6294 -1.1266 0.9727
-4.8498 -4.7938 -1.1234 0.9727
-4.6278 -6.1224 -1.2643 0.9694
-4.1479 -6.3967 -1.2559 0.9696
-1.0766 -2.1336 -0.3937 0.9904
-3.1428 -6.8288 -1.2384 0.9700
-2.8846 -6.9122 -1.2339 0.9701
-2.0994 -7.1030 -1.2202 0.9704
-1.1818 -4.6016 -0.7827 0.9809
-1.3068 -7.2052 -1.2063 0.9708
-1.0427 -7.2199 -1.2017 0.9709
-0.5168 -7.2206 -1.1926 0.9711
0.1504 -2.0704 -0.3420 0.9916
0.3123 -2.1462 -0.3573 0.9912
1.2654 -6.9357 -1.1615 0.9718
1.5572 -4.6304 -0.8048 0.9804
2.4423 -6.4806 -1.1409 0.9723
2.6648 -6.3668 -1.1370 0.9724
2.8824 -6.2459 -1.1332 0.9725
3.0951 -6.1180 -1.1295 0.9726
1.2957 -2.1599 -0.4149 0.9898
3.0017 -4.6186 -0.9074 0.9779
3.7355 -4.5791 -0.9735 0.9763
4.0335 -4.2757 -0.9683 0.9765
0.7505 -0.5953 -0.1578 0.9961
0.8102 -0.5109 -0.1578 0.9961
0.9380 -0.5011 -0.1752 0.9957
1.0044 -0.4043 -0.1784 0.9956
5.3928 -1.9483 -0.9446 0.9770
5.4836 -1.7608 -0.9488 0.9769
6.1645 -1.7374 -1.0551 0.9744
6.3290 -1.5403 -1.0731 0.9739
6.3755 -1.3106 -1.0723 0.9740
6.4145 -1.0797 -1.0716 0.9740
6.4458 -0.8477 -1.0710 0.9740
6.4945 -0.1481 -1.0702 0.9740
6.4955 0.0857 -1.0702 0.9740
6.4889 0.3193 -1.0703 0.9740
6.4747 0.5527 -1.0705 0.9740
6.3422 1.4790 -1.0728 0.9739
6.2902 1.7077 -1.0737 0.9739
6.2307 1.9348 -1.0748 0.9739
6.1637 2.1601 -1.0760 0.9739
6.0076 2.6043 -1.0787 0.9738
5.8222 3.0387 -1.0819 0.9737
5.6079 3.4614 -1.0857 0.9736
5.4901 3.6679 -1.0877 0.9736
5.2336 4.0699 -1.0922 0.9735
5.0950 4.2650 -1.0946 0.9734
4.6392 4.8240 -1.1026 0.9732
4.3031 5.1725 -1.1084 0.9731
4.1257 5.3388 -1.1115 0.9730
3.3572 5.9464 -1.1249 0.9727
3.1511 6.0827 -1.1285 0.9726
2.9398 6.2124 -1.1322 0.9725
2.5022 6.4509 -1.1399 0.9723
2.2763 6.5594 -1.1438 0.9722
2.0460 6.6604 -1.1478 0.9721
1.8115 6.7537 -1.1519 0.9721
1.5730 6.8391 -1.1561 0.9720
1.3307 6.9165 -1.1603 0.9719
1.0850 6.9856 -1.1646 0.9717
0.5842 7.0984 -1.1733 0.9715
-0.1862 7.2016 -1.1868 0.9712
-0.9722 7.2222 -1.2005 0.9709
-1.2362 7.2101 -1.2051 0.9708
-1.5005 7.1884 -1.2097 0.9707
-1.7649 7.1569 -1.2143 0.9706
-2.0289 7.1157 -1.2190 0.9704
-2.8152 6.9328 -1.2327 0.9701
-3.0741 6.8521 -1.2372 0.9700
-3.5845 6.6609 -1.2461 0.9698
-3.8352 6.5505 -1.2505 0.9697
-4.0825 6.4304 -1.2548 0.9696
-4.3258 6.3006 -1.2590 0.9695
-4.5648 6.1612 -1.2632 0.9694
-4.7990 6.0124 -1.2673 0.9693
-5.2514 5.6869 -1.2752 0.9691
-5.4689 5.5106 -1.2790 0.9690
-5.4138 -2.6533 -1.1332 0.9758
-3.9284 -2.1039 -0.8376 0.9820
-5.1912 -3.0254 -1.1293 0.9758
-5.0694 -3.2042 -1.1272 0.9759
-4.8062 -3.5459 -1.1226 0.9760
-2.0703 -2.1992 -0.5677 0.9878
-3.8781 -4.4285 -1.1064 0.9763
-3.7061 -4.5527 -1.1034 0.9764
-3.5301 -4.6701 -1.1004 0.9765
-3.1667 -4.8836 -1.0940 0.9766
-1.0904 -2.1609 -0.4549 0.9902
-2.5150 -6.0266 -1.2274 0.9738
-2.2891 -6.0935 -1.2235 0.9739
-1.8330 -6.2017 -1.2155 0.9740
-1.1816 -4.6009 -0.8929 0.9809
-1.3731 -6.2758 -1.2075 0.9742
-1.1426 -6.3001 -1.2035 0.9743
-0.9122 -6.3159 -1.1995 0.9744
-0.4525 -6.3226 -1.1914 0.9745
0.0033 -6.2964 -1.1835 0.9747
0.1688 -4.6204 -0.8690 0.9814
0.1504 -2.0707 -0.3902 0.9916
1.5370 -5.9589 -1.1567 0.9753
1.5315 -5.1617 -1.0120 0.9783
1.5574 -4.6311 -0.9184 0.9803
1.8871 -5.0073 -1.0058 0.9785
2.0598 -4.9214 -1.0028 0.9785
2.2290 -4.8298 -0.9998 0.9786
2.3944 -4.7328 -0.9969 0.9786
2.7133 -4.5230 -0.9914 0.9788
1.5056 -2.1436 -0.4924 0.9894
1.5686 -2.0706 -0.4883 0.9895
3.2996 -4.0448 -0.9811 0.9790
3.4347 -3.9140 -0.9788 0.9790
3.6904 -3.6402 -0.9743 0.9791
3.8108 -3.4975 -0.9722 0.9792
0.7719 -0.5683 -0.1802 0.9961
0.8371 -0.4867 -0.1820 0.9961
0.8671 -0.4632 -0.1848 0.9960
0.8982 -0.4390 -0.1879 0.9959
0.9303 -0.4140 -0.1914 0.9959
4.7200 -1.8999 -0.9563 0.9795
5.4108 -1.7374 -1.0682 0.9771
5.5633 -1.5680 -1.0864 0.9767
5.6885 -0.9575 -1.0842 0.9768
5.7166 -0.7518 -1.0838 0.9768
5.7380 -0.5455 -1.0834 0.9768
5.7553 0.2832 -1.0831 0.9768
5.7230 0.6968 -1.0836 0.9768
5.6236 1.3115 -1.0854 0.9768
5.5769 1.5141 -1.0862 0.9768
5.5236 1.7152 -1.0871 0.9767
5.4636 1.9147 -1.0882 0.9767
5.2439 2.5011 -1.0920 0.9766
5.0649 2.8799 -1.0951 0.9766
1.9991 1.3356 -0.4519 0.9903
1.8363 1.3248 -0.4256 0.9908
4.5074 3.7731 -1.1049 0.9764
3.9538 4.4190 -1.1145 0.9762
3.6434 4.7147 -1.1199 0.9760
3.4802 4.8550 -1.1228 0.9760
3.3119 4.9901 -1.1257 0.9759
2.7777 5.3620 -1.1351 0.9757
2.5904 5.4742 -1.1383 0.9757
2.3988 5.5802 -1.1417 0.9756
1.7999 5.8593 -1.1521 0.9754
1.5929 5.9389 -1.1557 0.9753
1.3826 6.0114 -1.1594 0.9752
1.1691 6.0767 -1.1631 0.9751
0.9528 6.1347 -1.1669 0.9750
0.7339 6.1852 -1.1707 0.9750
0.2891 6.2632 -1.1785 0.9748
0.0638 6.2905 -1.1824 0.9747
-0.1632 6.3098 -1.1864 0.9746
-0.6206 6.3240 -1.1944 0.9745
-0.8506 6.3187 -1.1984 0.9744
-1.3116 6.2831 -1.2064 0.9742
-1.5419 6.2526 -1.2105 0.9741
-1.7717 6.2136 -1.2145 0.9740
-2.0007 6.1661 -1.2185 0.9740
-2.2285 6.1100 -1.2224 0.9739
-2.9015 5.8903 -1.2342 0.9736
-3.5517 5.5943 -1.2455 0.9734
-3.9678 5.3555 -1.2528 0.9732
-3.9270 -2.1031 -0.9416 0.9820
-4.5718 -2.6644 -1.1185 0.9786
-4.4656 -2.8225 -1.1167 0.9786
-4.2358 -3.1251 -1.1127 0.9787
-2.5878 -2.0570 -0.6988 0.9866
-3.8510 -3.5418 -1.1060 0.9788
-3.4237 -3.9096 -1.0985 0.9790
-3.1185 -4.1256 -1.0932 0.9791
-1.2314 -2.0575 -0.5069 0.9902
-1.1422 -2.0745 -0.5006 0.9904
-1.0898 -2.1598 -0.5114 0.9902
-0.8949 -2.1444 -0.4912 0.9905
-1.7798 -4.7378 -1.0698 0.9795
-1.6036 -4.7849 -1.0667 0.9796
-1.4262 -4.8255 -1.0636 0.9796
-1.1815 -4.6002 -1.0039 0.9808
-1.0692 -4.8868 -1.0574 0.9798
-0.8901 -4.9075 -1.0543 0.9798
-0.5317 -4.9294 -1.0480 0.9799
-0.1542 -2.1547 -0.4566 0.9912
0.1688 -4.6211 -0.9775 0.9813
0.1504 -2.0711 -0.4389 0.9915
0.3113 -2.1398 -0.4571 0.9912
0.7753 -3.5256 -0.7630 0.9854
1.3657 -4.6030 -1.0149 0.9806
1.5262 -4.5383 -1.0121 0.9806
1.8386 -4.3930 -1.0066 0.9807
1.5063 -2.1446 -0.5540 0.9893
1.5688 -2.0710 -0.5492 0.9894
2.9522 -3.6189 -0.9872 0.9811
3.0739 -3.5027 -0.9851 0.9811
3.3043 -3.2593 -0.9811 0.9812
3.4128 -3.1322 -0.9792 0.9812
0.7342 -0.6267 -0.2040 0.9961
0.7535 -0.5977 -0.2033 0.9961
0.7727 -0.5688 -0.2028 0.9961
0.8111 -0.5115 -0.2027 0.9961
3.9652 -2.3053 -0.9695 0.9814
4.9924 -1.4071 -1.0964 0.9790
5.0362 -1.2257 -1.0956 0.9790
5.0740 -1.0430 -1.0950 0.9790
5.1057 -0.8594 -1.0944 0.9791
5.1312 -0.6748 -1.0940 0.9791
5.1506 -0.4896 -1.0936 0.9791
5.1716 0.0682 -1.0933 0.9791
5.1662 0.2543 -1.0934 0.9791
5.1547 0.4401 -1.0936 0.9791
5.1131 0.8101 -1.0943 0.9791
5.0831 0.9941 -1.0948 0.9790
5.0469 1.1770 -1.0954 0.9790
4.8417 1.8950 -1.0990 0.9790
2.0283 1.0586 -0.4836 0.9907
4.0377 3.3800 -1.1131 0.9787
3.5386 3.9550 -1.1218 0.9785
3.1123 4.3418 -1.1292 0.9784
2.1415 4.9815 -1.1462 0.9781
1.7873 5.1502 -1.1523 0.9780
1.2322 5.3575 -1.1620 0.9778
0.6534 5.5065 -1.1721 0.9776
0.4561 5.5427 -1.1756 0.9775
-0.1450 5.6092 -1.1861 0.9773
-0.3478 5.6171 -1.1896 0.9773
-0.5513 5.6176 -1.1932 0.9772
-0.7553 5.6109 -1.1967 0.9771
-0.9596 5.5967 -1.2003 0.9771
-1.5709 5.5092 -1.2110 0.9769
-1.7733 5.4650 -1.2145 0.9768
-2.1741 5.3540 -1.2215 0.9767
-2.3720 5.2873 -1.2249 0.9766
-3.5055 4.7315 -1.2447 0.9762
-3.6826 4.6137 -1.2478 0.9762
-4.1877 4.2196 -1.2566 0.9760
-3.9255 -2.1023 -1.0466 0.9819
-3.8869 -2.6572 -1.1066 0.9808
-3.7826 -2.7907 -1.1048 0.9809
-2.5034 -2.1414 -0.7742 0.9866
-3.4412 -3.1649 -1.0988 0.9810
-3.3186 -3.2803 -1.0967 0.9810
-3.0615 -3.4961 -1.0922 0.9811
-2.6494 -3.7805 -1.0850 0.9812
-1.1421 -2.0742 -0.5565 0.9903
-1.0893 -2.1588 -0.5683 0.9901
-1.9070 -4.1436 -1.0720 0.9814
-1.7523 -4.1989 -1.0693 0.9815
-1.5960 -4.2484 -1.0666 0.9815
-0.7300 -2.1784 -0.5399 0.9906
-1.1201 -4.3614 -1.0583 0.9817
-0.7993 -4.4072 -1.0527 0.9818
-0.4778 -4.4295 -1.0471 0.9819
-0.3172 -4.4319 -1.0443 0.9819
0.0023 -4.4196 -1.0387 0.9820
0.1609 -4.4048 -1.0359 0.9821
0.1504 -2.0714 -0.4881 0.9915
0.2242 -2.0582 -0.4866 0.9915
0.3108 -2.1366 -0.5074 0.9912
0.7828 -4.2908 -1.0251 0.9822
1.3762 -4.0923 -1.0147 0.9824
1.5188 -4.0302 -1.0122 0.9825
1.7961 -3.8919 -1.0074 0.9825
1.9305 -3.8158 -1.0050 0.9826
2.0618 -3.7354 -1.0027 0.9826
2.1899 -3.6506 -1.0005 0.9827
2.3148 -3.5617 -0.9983 0.9827
1.7022 -2.0866 -0.6329 0.9890
3.0873 -2.8335 -0.9848 0.9829
3.1819 -2.7160 -0.9832 0.9830
3.2723 -2.5956 -0.9816 0.9830
3.0191 -2.0593 -0.8589 0.9851
3.5175 -2.2181 -0.9773 0.9831
3.6587 -1.9545 -0.9749 0.9831
3.7224 -1.8195 -0.9738 0.9831
4.4270 -1.5994 -1.1063 0.9808
1.7388 -0.4232 -0.4206 0.9927
1.7462 -0.3590 -0.4190 0.9927
2.0249 -0.2663 -0.4800 0.9916
4.6802 -0.2755 -1.1018 0.9809
4.6866 -0.1069 -1.1017 0.9809
4.6873 0.0618 -1.1017 0.9809
4.6824 0.2304 -1.1018 0.9809
4.6719 0.3988 -1.1020 0.9809
4.6065 0.9009 -1.1031 0.9809
4.5349 1.2312 -1.1044 0.9809
4.3861 1.7167 -1.1070 0.9808
4.3256 1.8752 -1.1080 0.9808
1.9440 1.1054 -0.5256 0.9909
1.7908 1.1054 -0.4946 0.9914
1.6013 1.1553 -0.4641 0.9919
3.3198 3.4520 -1.1256 0.9805
3.0746 3.6958 -1.1299 0.9804
2.9455 3.8116 -1.1321 0.9804
2.5336 4.1329 -1.1393 0.9803
2.2399 4.3237 -1.1444 0.9802
2.0877 4.4118 -1.1471 0.9801
1.9322 4.4946 -1.1498 0.9801
1.6118 4.6444 -1.1554 0.9800
1.2800 4.7721 -1.1612 0.9799
0.9383 4.8767 -1.1672 0.9798
0.7642 4.9201 -1.1702 0.9797
0.4105 4.9885 -1.1764 0.9796
0.2314 5.0133 -1.1795 0.9796
0.0510 5.0318 -1.1826 0.9795
-0.1304 5.0438 -1.1858 0.9795
-0.3127 5.0494 -1.1890 0.9794
-0.6786 5.0408 -1.1954 0.9793
-1.4096 4.9435 -1.2081 0.9791
-1.5907 4.9024 -1.2113 0.9790
-1.7706 4.8545 -1.2144 0.9790
-1.9491 4.8000 -1.2176 0.9789
-2.3008 4.6708 -1.2237 0.9788
-2.4734 4.5963 -1.2267 0.9788
-2.9754 4.3337 -1.2355 0.9786
-3.1365 4.2335 -1.2383 0.9786
-3.7431 3.7717 -1.2489 0.9784
-3.7600 -2.0137 -1.1044 0.9825
-3.5962 -2.2730 -1.1015 0.9826
-2.5868 -2.0563 -0.8556 0.9864
-3.1070 -2.8576 -1.0930 0.9827
-2.9969 -2.9623 -1.0910 0.9827
-2.8831 -3.0626 -1.0891 0.9828
-2.5217 -3.3360 -1.0828 0.9829
-2.3951 -3.4176 -1.0805 0.9829
-2.2658 -3.4942 -1.0783 0.9829
-1.1419 -2.0739 -0.6130 0.9903
-1.7259 -3.7501 -1.0689 0.9831
-1.5862 -3.8011 -1.0664 0.9831
-1.1593 -3.9223 -1.0590 0.9832
-1.0150 -3.9520 -1.0565 0.9833
-0.8700 -3.9764 -1.0539 0.9833
-0.4333 -4.0178 -1.0463 0.9834
-0.1426 -4.0189 -1.0412 0.9835
0.1461 -3.9993 -1.0362 0.9836
0.2241 -2.0578 -0.5360 0.9915
0.3104 -2.1333 -0.5582 0.9911
0.7748 -3.5236 -0.9341 0.9852
0.9854 -3.8204 -1.0215 0.9838
1.1197 -3.7738 -1.0192 0.9839
1.2519 -3.7226 -1.0169 0.9839
1.3819 -3.6669 -1.0146 0.9839
1.6349 -3.5426 -1.0102 0.9840
1.8775 -3.4015 -1.0060 0.9841
1.9946 -3.3250 -1.0039 0.9841
2.1088 -3.2446 -1.0019 0.9841
1.5077 -2.1465 -0.6792 0.9892
1.5693 -2.0716 -0.6729 0.9893
2.6312 -2.7892 -0.9928 0.9843
2.9026 -2.4776 -0.9881 0.9844
2.9854 -2.3680 -0.9866 0.9844
2.9223 -2.1514 -0.9396 0.9851
3.2924 -1.9142 -0.9861 0.9844
3.3400 -1.7842 -0.9804 0.9845
1.6320 -0.5240 -0.4438 0.9929
4.2755 -0.2516 -1.1089 0.9825
4.2814 -0.0976 -1.1088 0.9825
4.2821 0.0565 -1.1088 0.9825
4.1774 0.9742 -1.1106 0.9824
4.1419 1.1245 -1.1112 0.9824
4.1014 1.2736 -1.1119 0.9824
4.0558 1.4214 -1.1127 0.9824
3.9497 1.7122 -1.1146 0.9824
2.1348 1.1142 -0.6235 0.9901
1.7908 1.1054 -0.5449 0.9913
1.6545 1.1054 -0.5152 0.9918
1.5415 1.1987 -0.5056 0.9920
1.5270 1.2782 -0.5156 0.9918
3.2352 2.9124 -1.1271 0.9822
3.0271 3.1476 -1.1307 0.9821
2.9168 3.2600 -1.1326 0.9821
2.5625 3.5748 -1.1388 0.9820
2.3078 3.7644 -1.1433 0.9819
2.1752 3.8528 -1.1456 0.9819
2.0394 3.9367 -1.1479 0.9818
1.7585 4.0906 -1.1528 0.9818
1.4662 4.2251 -1.1579 0.9817
1.1639 4.3393 -1.1632 0.9816
0.6944 4.4707 -1.1714 0.9815
0.5343 4.5035 -1.1742 0.9814
-0.1184 4.5775 -1.1856 0.9813
-0.2837 4.5814 -1.1885 0.9812
-0.4494 4.5794 -1.1914 0.9812
-0.9471 4.5371 -1.2001 0.9810
-1.1124 4.5110 -1.2030 0.9810
-1.2770 4.4787 -1.2058 0.9809
-1.6033 4.3959 -1.2115 0.9809
-1.7646 4.3454 -1.2143 0.9808
-1.9242 4.2890 -1.2171 0.9808
-2.3910 4.0838 -1.2253 0.9806
-2.5419 4.0037 -1.2279 0.9806
-2.6899 3.9179 -1.2305 0.9806
-2.8350 3.8264 -1.2330 0.9805
-2.9768 3.7294 -1.2355 0.9805
-3.1151 3.6270 -1.2379 0.9804
-1.2253 1.3270 -0.4677 0.9926
-1.3181 1.3281 -0.4845 0.9923
-3.4205 -1.8319 -1.0984 0.9840
-3.3485 -1.9515 -1.0972 0.9840
-3.1915 -2.1818 -1.0944 0.9841
-2.5864 -2.0559 -0.9353 0.9864
-2.5014 -2.1397 -0.9319 0.9864
-2.1831 -3.1150 -1.0768 0.9843
-2.0656 -3.1855 -1.0748 0.9843
-1.2323 -2.0591 -0.6793 0.9901
-1.0585 -3.5814 -1.0572 0.9846
-0.9270 -3.6093 -1.0549 0.9846
-0.6621 -3.6505 -1.0503 0.9847
-0.3961 -3.6724 -1.0456 0.9848
-0.1304 -3.6750 -1.0410 0.9848
0.0019 -3.6691 -1.0387 0.9849
0.2241 -2.0574 -0.5859 0.9914
0.6514 -3.5701 -1.0274 0.9850
0.7746 -3.5225 -1.0210 0.9851
1.1470 -3.4108 -1.0187 0.9852
1.3837 -3.3060 -1.0146 0.9852
1.8295 -3.0498 -1.0068 0.9853
1.9345 -2.9765 -1.0050 0.9854
1.5696 -2.0720 -0.7359 0.9893
2.4157 -2.5607 -0.9966 0.9855
2.8151 -2.0724 -0.9896 0.9856
3.2716 -1.7477 -1.0500 0.9847
3.6160 -1.6090 -1.1204 0.9837
3.7165 -1.3427 -1.1187 0.9837
1.5891 -0.5103 -0.4725 0.9931
1.5943 -0.4493 -0.4689 0.9931
1.5988 -0.3891 -0.4658 0.9932
1.6026 -0.3294 -0.4632 0.9932
2.1290 -0.2800 -0.6079 0.9911
3.9315 -0.2314 -1.1149 0.9838
3.9370 -0.0898 -1.1148 0.9838
3.9376 0.0519 -1.1148 0.9838
3.9334 0.1936 -1.1149 0.9838
3.9245 0.3350 -1.1150 0.9838
3.9107 0.4761 -1.1153 0.9838
3.8922 0.6167 -1.1156 0.9838
3.8409 0.8957 -1.1165 0.9837
3.8081 1.0339 -1.1171 0.9837
3.7706 1.1709 -1.1177 0.9837
3.7285 1.3067 -1.1185 0.9837
3.6818 1.4410 -1.1193 0.9837
3.6304 1.5738 -1.1202 0.9837
2.1179 1.1054 -0.6763 0.9901
1.5322 1.1054 -0.5348 0.9922
1.5033 1.1691 -0.5391 0.9921
1.4951 1.2515 -0.5520 0.9919
2.8770 2.7838 -1.1333 0.9835
2.7792 2.8899 -1.1350 0.9835
2.5723 3.0920 -1.1386 0.9834
2.4635 3.1879 -1.1405 0.9834
2.3513 3.2801 -1.1425 0.9834
2.2357 3.3685 -1.1445 0.9833
1.2058 3.9254 -1.1625 0.9831
0.7808 4.0582 -1.1699 0.9830
0.1922 4.1645 -1.1802 0.9828
-0.1082 4.1860 -1.1854 0.9827
-0.2594 4.1887 -1.1881 0.9827
-0.5624 4.1777 -1.1934 0.9826
-0.7139 4.1640 -1.1960 0.9826
-1.3153 4.0538 -1.2065 0.9824
-1.6103 3.9655 -1.2116 0.9824
-1.7556 3.9132 -1.2142 0.9823
-2.1803 3.7239 -1.2216 0.9822
-2.3174 3.6501 -1.2240 0.9822
-2.5836 3.4872 -1.2286 0.9821
-2.7124 3.3982 -1.2309 0.9821
-1.1201 1.3042 -0.4867 0.9929
-1.1523 1.2479 -0.4809 0.9930
-1.1828 1.1918 -0.4753 0.9930
-3.5485 -1.7391 -1.2155 0.9836
-3.2713 -1.7519 -1.1414 0.9846
-3.0682 -1.7881 -1.0923 0.9852
-2.9986 -1.8953 -1.0911 0.9853
-2.4085 -2.5585 -1.0808 0.9854
-2.2113 -2.7164 -1.0773 0.9854
-2.0034 -2.8587 -1.0737 0.9855
-1.1415 -2.0732 -0.7279 0.9901
-1.0876 -2.1555 -0.7426 0.9899
-1.4462 -3.1424 -1.0640 0.9856
-1.3297 -3.1863 -1.0619 0.9857
-0.6088 -3.3569 -1.0494 0.9858
-0.4867 -3.3698 -1.0472 0.9859
-0.2421 -3.3822 -1.0430 0.9859
0.0018 -3.3770 -1.0387 0.9860
0.1230 -3.3679 -1.0366 0.9860
0.1505 -2.0725 -0.6391 0.9913
0.3094 -2.1267 -0.6610 0.9910
0.6000 -3.2888 -1.0283 0.9861
1.1676 -3.0982 -1.0184 0.9862
1.2759 -3.0485 -1.0165 0.9863
1.4865 -2.9382 -1.0128 0.9863
1.5884 -2.8777 -1.0110 0.9863
1.5091 -2.1485 -0.8076 0.9891
1.5699 -2.0723 -0.7996 0.9892
1.7005 -2.0845 -0.8274 0.9888
2.1472 -2.4468 -1.0013 0.9865
2.2306 -2.3645 -0.9998 0.9865
2.3882 -2.1919 -0.9970 0.9865
2.4624 -2.1018 -0.9958 0.9865
2.6046 -1.9175 -0.9948 0.9866
3.2893 -1.6078 -1.1261 0.9848
3.3423 -1.4872 -1.1252 0.9848
3.3911 -1.3650 -1.1243 0.9848
1.5429 -0.5574 -0.5046 0.9932
1.5489 -0.4974 -0.5004 0.9932
1.5628 -0.3213 -0.4907 0.9933
1.8686 -0.3145 -0.5828 0.9921
2.1513 -0.2829 -0.6674 0.9910
3.6258 -0.3447 -1.1202 0.9849
3.6404 -0.0830 -1.1200 0.9849
3.6410 0.0480 -1.1200 0.9849
3.6371 0.1790 -1.1201 0.9849
3.6288 0.3098 -1.1202 0.9849
3.5511 0.8281 -1.1216 0.9849
3.4859 1.0825 -1.1227 0.9848
2.1179 1.1054 -0.7348 0.9901
1.6545 1.1054 -0.6120 0.9917
1.4707 1.2311 -0.5899 0.9920
2.6570 2.5709 -1.1372 0.9846
2.5663 2.6685 -1.1387 0.9846
2.2740 2.9426 -1.1438 0.9846
2.1701 3.0273 -1.1457 0.9845
2.0631 3.1085 -1.1475 0.9845
1.9532 3.1860 -1.1494 0.9845
1.4864 3.4576 -1.1576 0.9844
1.2385 3.5688 -1.1619 0.9843
1.1114 3.6180 -1.1641 0.9843
0.7193 3.7385 -1.1710 0.9842
0.5855 3.7695 -1.1733 0.9842
0.3141 3.8172 -1.1781 0.9841
0.0390 3.8455 -1.1829 0.9840
-0.2386 3.8541 -1.1877 0.9840
-0.3779 3.8509 -1.1901 0.9839
-0.5173 3.8426 -1.1926 0.9839
-0.6566 3.8293 -1.1950 0.9839
-0.7955 3.8109 -1.1974 0.9838
-0.9340 3.7875 -1.1998 0.9838
-1.2088 3.7253 -1.2046 0.9837
-1.3447 3.6867 -1.2070 0.9837
-1.4793 3.6430 -1.2094 0.9837
-1.6125 3.5943 -1.2117 0.9836
-1.8739 3.4821 -1.2162 0.9836
-2.0016 3.4187 -1.2185 0.9836
-2.1271 3.3504 -1.2207 0.9835
-2.3708 3.1999 -1.2249 0.9835
-1.0509 1.3167 -0.5182 0.9930
-1.0890 1.1793 -0.4937 0.9933
-3.3554 -1.6445 -1.2421 0.9844
-3.2429 -1.7368 -1.2228 0.9846
-2.7835 -1.7593 -1.0946 0.9862
-2.5511 -2.0279 -1.0833 0.9864
-2.4734 -2.1157 -1.0819 0.9864
-2.1325 -2.4351 -1.0760 0.9864
-2.0404 -2.5065 -1.0744 0.9865
-1.8491 -2.6386 -1.0710 0.9865
-1.7502 -2.6990 -1.0693 0.9865
-1.2330 -2.0603 -0.7981 0.9899
-1.1413 -2.0729 -0.7866 0.9901
-1.0098 -3.0132 -1.0564 0.9867
-0.8991 -3.0420 -1.0544 0.9867
-0.7876 -3.0667 -1.0525 0.9867
-0.6755 -3.0873 -1.0505 0.9868
-0.5629 -3.1038 -1.0486 0.9868
-0.4500 -3.1162 -1.0466 0.9868
-0.3370 -3.1245 -1.0446 0.9868
-0.2239 -3.1287 -1.0426 0.9869
-0.1110 -3.1288 -1.0407 0.9869
0.1138 -3.1168 -1.0367 0.9869
0.2240 -2.0567 -0.6877 0.9913
0.5556 -3.0455 -1.0290 0.9870
0.8758 -2.9517 -1.0234 0.9871
0.9797 -2.9131 -1.0216 0.9871
1.0820 -2.8710 -1.0199 0.9872
1.1825 -2.8253 -1.0181 0.9872
1.3780 -2.7238 -1.0147 0.9872
1.6555 -2.5472 -1.0098 0.9873
1.5701 -2.0727 -0.8643 0.9891
2.0698 -2.1940 -1.0026 0.9874
2.3515 -1.8652 -0.9977 0.9874
2.7635 -1.7427 -1.0860 0.9863
2.9444 -1.7119 -1.1321 0.9857
3.0015 -1.6034 -1.1311 0.9858
3.1496 -1.2678 -1.1286 0.9858
1.5074 -0.5446 -0.5328 0.9933
1.5108 -0.4851 -0.5275 0.9933
1.5300 -0.3145 -0.5192 0.9934
3.3685 -0.3202 -1.1247 0.9858
3.3773 -0.1988 -1.1246 0.9858
3.3790 0.1663 -1.1246 0.9858
3.3712 0.2878 -1.1247 0.9858
3.3593 0.4090 -1.1249 0.9858
3.3433 0.5297 -1.1252 0.9858
3.2988 0.7693 -1.1260 0.9858
3.2015 1.1220 -1.1277 0.9858
3.1610 1.2372 -1.1284 0.9858
3.0683 1.4634 -1.1300 0.9858
2.1179 1.1054 -0.7941 0.9900
1.9440 1.1054 -0.7434 0.9906
1.7908 1.1054 -0.6995 0.9912
1.5322 1.1054 -0.6280 0.9921
1.4558 1.1321 -0.6130 0.9923
1.4368 1.2934 -0.6426 0.9919
2.4657 2.3858 -1.1405 0.9856
2.2938 2.5637 -1.1435 0.9856
2.2031 2.6482 -1.1451 0.9856
2.1094 2.7297 -1.1467 0.9856
1.7064 3.0225 -1.1538 0.9855
1.4895 3.1477 -1.1575 0.9854
1.0297 3.3519 -1.1656 0.9853
0.9100 3.3928 -1.1677 0.9853
0.4169 3.5140 -1.1763 0.9852
0.0361 3.5584 -1.1829 0.9851
-0.2208 3.5653 -1.1874 0.9851
-0.3496 3.5618 -1.1896 0.9850
-0.7355 3.5232 -1.1964 0.9849
-0.9906 3.4741 -1.2008 0.9849
-1.1170 3.4425 -1.2030 0.9849
-1.2424 3.4063 -1.2052 0.9848
-1.4894 3.3199 -1.2095 0.9848
-1.6107 3.2699 -1.2117 0.9848
-1.7303 3.2154 -1.2137 0.9847
-1.8480 3.1564 -1.2158 0.9847
-0.9938 1.3414 -0.5549 0.9930
-1.0154 1.2721 -0.5410 0.9932
-1.0353 1.2055 -0.5282 0.9933
-1.0538 1.1412 -0.5163 0.9935
-1.0970 1.1054 -0.5177 0.9935
-3.1081 -1.5233 -1.2378 0.9854
-2.9758 -1.7343 -1.2317 0.9855
-2.3642 -1.8793 -1.0800 0.9873
-2.2923 -1.9608 -1.0787 0.9873
-2.2176 -2.0396 -1.0774 0.9873
-2.0599 -2.1882 -1.0747 0.9873
-1.9772 -2.2578 -1.0732 0.9873
-1.7151 -2.4473 -1.0687 0.9874
-1.6235 -2.5036 -1.0671 0.9874
-1.2333 -2.0608 -0.8589 0.9898
-1.1411 -2.0725 -0.8461 0.9900
-1.2397 -2.6936 -1.0604 0.9875
-1.0393 -2.7666 -1.0569 0.9875
-0.9375 -2.7975 -1.0551 0.9875
-0.8349 -2.8246 -1.0533 0.9876
-0.7314 -2.8480 -1.0515 0.9876
-0.4181 -2.8951 -1.0460 0.9877
-0.2081 -2.9074 -1.0424 0.9877
0.1506 -2.0732 -0.7433 0.9912
0.2240 -2.0563 -0.7397 0.9913
0.6173 -2.8075 -1.0280 0.9879
0.9117 -2.7110 -1.0228 0.9879
1.0070 -2.6721 -1.0212 0.9879
1.1007 -2.6299 -1.0195 0.9880
1.2830 -2.5360 -1.0163 0.9880
1.3713 -2.4844 -1.0148 0.9880
1.4576 -2.4299 -1.0133 0.9880
1.5105 -2.1506 -0.9398 0.9889
1.5704 -2.0730 -0.9300 0.9890
1.6993 -2.0830 -0.9613 0.9886
1.8562 -2.1151 -1.0063 0.9881
2.2166 -1.7582 -1.0118 0.9881
2.8485 -1.3924 -1.1338 0.9866
2.8947 -1.2881 -1.1330 0.9866
1.4865 -0.5371 -0.5652 0.9933
1.4932 -0.4209 -0.5548 0.9934
2.1827 -0.2871 -0.7873 0.9907
3.1421 -0.2987 -1.1287 0.9867
3.1548 -0.0719 -1.1285 0.9867
3.1553 0.0416 -1.1285 0.9867
3.1519 0.1551 -1.1285 0.9867
3.1335 0.3815 -1.1288 0.9867
3.0996 0.6062 -1.1294 0.9867
2.9480 1.1538 -1.1321 0.9866
2.9064 1.2599 -1.1328 0.9866
2.1179 1.1054 -0.8543 0.9899
1.9440 1.1054 -0.7997 0.9905
1.7908 1.1054 -0.7526 0.9911
1.4302 1.1972 -0.6670 0.9921
2.2979 2.2234 -1.1434 0.9865
2.2190 2.3074 -1.1448 0.9865
2.1372 2.3887 -1.1462 0.9865
2.0526 2.4673 -1.1477 0.9865
1.7821 2.6851 -1.1524 0.9864
1.6867 2.7514 -1.1541 0.9864
1.5890 2.8145 -1.1558 0.9864
1.3867 2.9304 -1.1593 0.9863
1.0680 3.0774 -1.1649 0.9863
0.9581 3.1190 -1.1668 0.9862
0.8467 3.1567 -1.1688 0.9862
0.7338 3.1905 -1.1707 0.9862
0.6196 3.2203 -1.1727 0.9862
0.5042 3.2461 -1.1747 0.9861
0.3877 3.2678 -1.1768 0.9861
-0.0857 3.3127 -1.1850 0.9860
-0.3248 3.3096 -1.1892 0.9860
-0.8018 3.2513 -1.1975 0.9859
-0.9198 3.2259 -1.1996 0.9859
-1.4947 3.0344 -1.2096 0.9857
-1.6055 2.9834 -1.2116 0.9857
-1.7145 2.9283 -1.2135 0.9857
-0.9643 1.3015 -0.5792 0.9931
-1.0017 1.1664 -0.5498 0.9935
-2.7152 -1.7162 -1.2309 0.9863
-2.5481 -1.7419 -1.1828 0.9869
-2.2142 -1.7600 -1.0839 0.9880
-2.1336 -1.8251 -1.0760 0.9880
-2.0643 -1.8985 -1.0748 0.9881
-1.9178 -2.0372 -1.0722 0.9881
-1.5974 -2.2793 -1.0666 0.9881
-1.5122 -2.3321 -1.0651 0.9882
-1.2337 -2.0614 -0.9206 0.9898
-1.1409 -2.0722 -0.9065 0.9899
-1.0859 -2.1520 -0.9237 0.9897
-1.1552 -2.5101 -1.0589 0.9882
-0.8740 -2.6078 -1.0540 0.9883
-0.7783 -2.6334 -1.0523 0.9883
-0.6820 -2.6554 -1.0506 0.9883
-0.5851 -2.6739 -1.0489 0.9883
-0.3900 -2.7003 -1.0455 0.9884
-0.2921 -2.7082 -1.0438 0.9884
-0.1941 -2.7125 -1.0421 0.9884
-0.0963 -2.7132 -1.0404 0.9884
0.0014 -2.7105 -1.0387 0.9885
0.2239 -2.0559 -0.7925 0.9912
0.3079 -2.1165 -0.8196 0.9909
0.4826 -2.6449 -1.0303 0.9885
0.7611 -2.5654 -1.0254 0.9886
0.8516 -2.5324 -1.0239 0.9886
0.9408 -2.4963 -1.0223 0.9886
1.0284 -2.4572 -1.0208 0.9887
1.3625 -2.2712 -1.0150 0.9887
1.4413 -2.2177 -1.0136 0.9887
1.5182 -2.1615 -1.0122 0.9887
1.7357 -1.9779 -1.0084 0.9888
2.0553 -1.7543 -1.0355 0.9885
2.3597 -1.7372 -1.1229 0.9875
2.5155 -1.5863 -1.1396 0.9873
2.5688 -1.4935 -1.1387 0.9874
2.7489 -1.1065 -1.1356 0.9874
1.4659 -0.5296 -0.5973 0.9933
1.4757 -0.3591 -0.5820 0.9935
1.5300 -0.3145 -0.5986 0.9933
2.1830 -0.2871 -0.8438 0.9906
2.9412 -0.2796 -1.1322 0.9874
2.9531 -0.0673 -1.1320 0.9874
2.9505 0.1452 -1.1320 0.9874
2.8265 0.8777 -1.1342 0.9874
2.7945 0.9793 -1.1348 0.9874
2.7590 1.0798 -1.1354 0.9874
1.9440 1.1054 -0.8570 0.9905
1.6545 1.1054 -0.7625 0.9915
1.5322 1.1054 -0.7240 0.9919
2.0753 2.1579 -1.1473 0.9873
1.9193 2.3070 -1.1500 0.9872
1.8373 2.3776 -1.1515 0.9872
1.6659 2.5100 -1.1545 0.9872
1.3915 2.6860 -1.1592 0.9871
1.2958 2.7383 -1.1609 0.9871
1.1982 2.7872 -1.1626 0.9871
0.8949 2.9133 -1.1679 0.9870
0.7908 2.9482 -1.1697 0.9870
0.6853 2.9794 -1.1716 0.9870
0.5785 3.0069 -1.1734 0.9870
0.3620 3.0505 -1.1772 0.9869
0.2524 3.0666 -1.1791 0.9869
0.0313 3.0868 -1.1830 0.9869
-0.4146 3.0795 -1.1908 0.9868
-0.5260 3.0676 -1.1927 0.9868
-0.7476 3.0316 -1.1966 0.9867
-0.9668 2.9795 -1.2004 0.9867
-1.1822 2.9114 -1.2042 0.9866
-1.2882 2.8714 -1.2060 0.9866
-1.3928 2.8274 -1.2078 0.9866
-1.5972 2.7280 -1.2114 0.9865
-1.6968 2.6726 -1.2132 0.9865
-0.9579 1.2001 -0.5884 0.9934
-0.9702 1.1297 -0.5707 0.9936
-1.0207 1.1054 -0.5766 0.9936
-1.0866 -0.5325 -0.4952 0.9948
-2.5940 -1.5118 -1.2288 0.9871
-2.5359 -1.6028 -1.2278 0.9871
-2.0514 -1.7548 -1.1049 0.9884
-1.9286 -1.7737 -1.0724 0.9887
-1.7204 -1.9646 -1.0688 0.9888
-1.0853 -2.1509 -0.9860 0.9896
-1.0803 -2.3474 -1.0576 0.9889
-0.9938 -2.3813 -1.0561 0.9889
-0.9061 -2.4120 -1.0546 0.9889
-0.8176 -2.4395 -1.0530 0.9889
-0.5475 -2.5021 -1.0483 0.9890
-0.4564 -2.5164 -1.0467 0.9890
-0.0901 -2.5402 -1.0403 0.9891
0.1506 -2.0739 -0.8510 0.9911
0.2239 -2.0555 -0.8462 0.9911
0.4521 -2.4778 -1.0308 0.9892
0.6272 -2.4317 -1.0278 0.9892
0.7133 -2.4040 -1.0263 0.9892
0.8818 -2.3398 -1.0233 0.9893
1.0448 -2.2640 -1.0205 0.9893
1.1241 -2.2219 -1.0191 0.9893
1.4238 -2.0272 -1.0139 0.9894
1.4940 -1.9723 -1.0127 0.9894
1.6921 -1.7937 -1.0092 0.9894
1.7816 -1.7573 -1.0242 0.9892
2.0416 -1.7427 -1.0986 0.9885
2.4111 -1.4018 -1.1415 0.9880
2.5805 -1.0387 -1.1385 0.9880
1.4455 -0.5222 -0.6290 0.9934
1.4557 -0.3543 -0.6132 0.9935
2.1833 -0.2871 -0.9013 0.9905
2.7728 -0.0632 -1.1351 0.9881
2.7639 0.2359 -1.1353 0.9881
2.7540 0.3353 -1.1355 0.9881
2.7407 0.4342 -1.1357 0.9881
2.7240 0.5327 -1.1360 0.9881
2.6536 0.8240 -1.1372 0.9881
2.6235 0.9194 -1.1377 0.9881
2.5900 1.0137 -1.1383 0.9881
2.5134 1.1988 -1.1397 0.9880
1.6545 1.1054 -0.8144 0.9914
1.5322 1.1054 -0.7732 0.9919
1.4103 1.2696 -0.7766 0.9918
1.9469 2.0245 -1.1496 0.9879
1.8749 2.0955 -1.1508 0.9879
1.8003 2.1641 -1.1521 0.9879
1.6439 2.2933 -1.1548 0.9879
1.3925 2.4665 -1.1592 0.9878
0.7410 2.7625 -1.1706 0.9877
0.5420 2.8170 -1.1741 0.9877
0.4409 2.8389 -1.1758 0.9877
0.3390 2.8573 -1.1776 0.9876
0.2364 2.8720 -1.1794 0.9876
0.1331 2.8831 -1.1812 0.9876
0.0293 2.8904 -1.1830 0.9876
-0.1792 2.8939 -1.1867 0.9875
-0.2836 2.8900 -1.1885 0.9875
-0.4922 2.8709 -1.1921 0.9875
-0.5961 2.8557 -1.1939 0.9875
-0.6995 2.8366 -1.1957 0.9875
-1.2047 2.6853 -1.2046 0.9874
-1.4933 2.5505 -1.2096 0.9873
-1.5862 2.4984 -1.2112 0.9873
-0.9098 1.3251 -0.6578 0.9931
-0.9388 1.1762 -0.6159 0.9935
-0.9515 1.1078 -0.5977 0.9937
-1.0970 1.1054 -0.6374 0.9933
-2.4816 -1.3290 -1.2269 0.9878
-2.4304 -1.4164 -1.2260 0.9878
-2.2581 -1.6660 -1.2230 0.9878
-2.1824 -1.7348 -1.2150 0.9879
-1.9030 -1.7502 -1.1268 0.9888
-1.2344 -2.0626 -1.0476 0.9896
-1.0847 -2.1497 -1.0494 0.9895
-0.9323 -2.2340 -1.0550 0.9895
-0.8502 -2.2631 -1.0536 0.9895
-0.7671 -2.2890 -1.0521 0.9895
-0.5988 -2.3317 -1.0492 0.9896
-0.5138 -2.3484 -1.0477 0.9896
-0.2567 -2.3799 -1.0432 0.9896
-0.0846 -2.3853 -1.0402 0.9896
0.0012 -2.3834 -1.0387 0.9897
0.4247 -2.3280 -1.0313 0.9897
0.5075 -2.3080 -1.0299 0.9897
0.7501 -2.2306 -1.0256 0.9898
0.9062 -2.1651 -1.0229 0.9898
1.0568 -2.0890 -1.0203 0.9898
1.1299 -2.0470 -1.0190 0.9898
1.2013 -2.0026 -1.0178 0.9899
1.4052 -1.8550 -1.0142 0.9899
1.7704 -1.7463 -1.0838 0.9892
1.8948 -1.7390 -1.1209 0.9888
2.0045 -1.7110 -1.1485 0.9886
2.1186 -1.5597 -1.1466 0.9886
2.1716 -1.4813 -1.1456 0.9886
2.3935 -1.0651 -1.1418 0.9886
2.4290 -0.9777 -1.1411 0.9886
2.6105 -0.0595 -1.1380 0.9887
2.6109 0.0344 -1.1380 0.9887
2.6081 0.1284 -1.1380 0.9887
2.5454 0.5936 -1.1391 0.9887
2.5233 0.6850 -1.1395 0.9887
2.4980 0.7757 -1.1399 0.9887
2.4695 0.8654 -1.1404 0.9886
2.4033 1.0418 -1.1416 0.9886
1.7908 1.1054 -0.9172 0.9909
1.6545 1.1054 -0.8672 0.9914
1.4214 1.1054 -0.7848 0.9922
1.4172 1.2758 -0.8310 0.9917
1.8316 1.9045 -1.1516 0.9885
1.6209 2.0975 -1.1552 0.9885
1.3902 2.2678 -1.1593 0.9885
1.2266 2.3677 -1.1621 0.9884
1.0558 2.4561 -1.1651 0.9884
0.6963 2.5960 -1.1714 0.9883
0.4143 2.6671 -1.1763 0.9883
0.2220 2.6977 -1.1797 0.9883
0.1250 2.7078 -1.1814 0.9882
0.0275 2.7144 -1.1831 0.9882
-0.0703 2.7176 -1.1848 0.9882
-0.1682 2.7172 -1.1865 0.9882
-0.3643 2.7059 -1.1899 0.9882
-0.4620 2.6949 -1.1916 0.9881
-0.6565 2.6622 -1.1950 0.9881
-0.7529 2.6406 -1.1967 0.9881
-0.8486 2.6154 -1.1984 0.9881
-0.9435 2.5868 -1.2000 0.9881
-1.1301 2.5191 -1.2033 0.9880
-1.2217 2.4800 -1.2049 0.9880
-1.4875 2.3430 -1.2095 0.9880
-0.8905 1.2970 -0.6856 0.9932
-0.9202 1.1528 -0.6428 0.9936
-1.0970 1.1054 -0.6787 0.9932
-1.0306 -0.5051 -0.5313 0.9950
-2.2835 -1.3308 -1.2234 0.9884
-2.2325 -1.4111 -1.2225 0.9884
-2.1219 -1.5655 -1.2206 0.9884
-2.0003 -1.7110 -1.2185 0.9885
-1.8905 -1.7387 -1.1889 0.9887
-1.6492 -1.7518 -1.1137 0.9895
-1.5390 -1.7575 -1.0813 0.9898
-1.4512 -1.7828 -1.0641 0.9899
-1.3846 -1.8318 -1.0629 0.9899
-1.3164 -1.8783 -1.0617 0.9899
-1.1751 -1.9636 -1.0592 0.9900
-1.1024 -2.0022 -1.0580 0.9900
-0.9532 -2.0712 -1.0554 0.9900
-0.8770 -2.1015 -1.0540 0.9900
-0.7217 -2.1535 -1.0513 0.9900
-0.5635 -2.1941 -1.0486 0.9901
-0.4835 -2.2100 -1.0472 0.9901
-0.2416 -2.2402 -1.0430 0.9901
-0.1606 -2.2444 -1.0415 0.9901
0.0818 -2.2395 -1.0373 0.9902
0.1507 -2.0747 -0.9629 0.9909
0.4001 -2.1928 -1.0318 0.9902
0.6315 -2.1285 -1.0277 0.9903
0.7068 -2.1017 -1.0264 0.9903
0.7810 -2.0723 -1.0251 0.9903
0.9257 -2.0058 -1.0226 0.9903
1.0650 -1.9295 -1.0201 0.9903
1.1324 -1.8877 -1.0190 0.9903
1.1983 -1.8437 -1.0178 0.9904
1.2624 -1.7974 -1.0167 0.9904
1.6435 -1.7421 -1.1086 0.9895
1.8328 -1.6822 -1.1515 0.9891
2.0959 -1.3217 -1.1470 0.9891
2.1406 -1.2446 -1.1462 0.9891
2.2582 -1.0049 -1.1441 0.9892
1.4240 -0.5145 -0.7009 0.9933
1.4267 -0.4021 -0.6861 0.9935
1.4278 -0.3475 -0.6802 0.9935
1.5300 -0.3145 -0.7230 0.9931
1.8686 -0.3145 -0.8771 0.9917
2.4533 -0.2332 -1.1407 0.9892
2.4599 -0.1448 -1.1406 0.9892
2.4633 -0.0562 -1.1405 0.9892
2.4554 0.2096 -1.1407 0.9892
2.4466 0.2979 -1.1408 0.9892
2.4347 0.3858 -1.1410 0.9892
2.3809 0.6464 -1.1420 0.9892
2.3570 0.7319 -1.1424 0.9892
2.3301 0.8166 -1.1429 0.9892
2.3002 0.9003 -1.1434 0.9892
2.2675 0.9830 -1.1440 0.9892
1.9440 1.1054 -1.0352 0.9902
1.6545 1.1054 -0.9210 0.9913
1.4233 1.1915 -0.8592 0.9919
1.4302 1.2875 -0.8907 0.9916
1.7890 1.7311 -1.1523 0.9891
1.6631 1.8588 -1.1545 0.9891
1.5282 1.9776 -1.1569 0.9890
1.3850 2.0868 -1.1594 0.9890
1.0763 2.2745 -1.1648 0.9890
0.6560 2.4457 -1.1721 0.9889
0.4797 2.4931 -1.1752 0.9889
0.2999 2.5278 -1.1783 0.9888
0.2091 2.5404 -1.1799 0.9888
0.1177 2.5497 -1.1815 0.9888
0.0259 2.5558 -1.1831 0.9888
-0.0662 2.5585 -1.1847 0.9888
-0.1584 2.5579 -1.1863 0.9888
-0.2507 2.5541 -1.1879 0.9888
-0.3429 2.5468 -1.1895 0.9887
-0.4349 2.5363 -1.1911 0.9887
-0.5265 2.5224 -1.1927 0.9887
-0.6178 2.5051 -1.1943 0.9887
-0.7084 2.4846 -1.1959 0.9887
-0.8876 2.4335 -1.1990 0.9886
-0.9758 2.4031 -1.2006 0.9886
-1.0630 2.3694 -1.2021 0.9886
-1.1490 2.3326 -1.2036 0.9886
-0.9494 1.1054 -0.6745 0.9936
-1.0207 1.1054 -0.6964 0.9934
-0.9954 -0.5331 -0.5539 0.9950
-2.1507 -1.2534 -1.2211 0.9890
-2.0521 -1.4029 -1.2194 0.9890
-1.9988 -1.4747 -1.2184 0.9890
-1.9429 -1.5444 -1.2175 0.9890
-1.8237 -1.6773 -1.2154 0.9890
-1.6388 -1.7409 -1.1728 0.9894
-1.5297 -1.7468 -1.1389 0.9897
-1.3281 -1.7570 -1.0803 0.9902
-1.2406 -1.7703 -1.0604 0.9904
-1.1749 -1.8118 -1.0592 0.9904
-1.0392 -1.8874 -1.0569 0.9904
-0.9695 -1.9214 -1.0557 0.9905
-0.8987 -1.9527 -1.0544 0.9905
-0.7541 -2.0075 -1.0519 0.9905
-0.6063 -2.0515 -1.0493 0.9905
-0.3042 -2.1066 -1.0440 0.9906
-0.2279 -2.1135 -1.0427 0.9906
-0.1516 -2.1176 -1.0414 0.9906
-0.0752 -2.1189 -1.0400 0.9906
0.0011 -2.1176 -1.0387 0.9906
0.0772 -2.1134 -1.0374 0.9906
0.1507 -2.0751 -1.0206 0.9908
0.2237 -2.0542 -1.0136 0.9908
0.4513 -2.0525 -1.0309 0.9907
0.5242 -2.0324 -1.0296 0.9907
0.5963 -2.0098 -1.0283 0.9907
0.8065 -1.9269 -1.0247 0.9907
0.9408 -1.8597 -1.0223 0.9908
1.0698 -1.7833 -1.0201 0.9908
1.3250 -1.7491 -1.0764 0.9903
1.4225 -1.7437 -1.1038 0.9900
1.6162 -1.7133 -1.1553 0.9896
1.8391 -1.4587 -1.1514 0.9896
1.9813 -1.2494 -1.1490 0.9896
2.0634 -1.1023 -1.1475 0.9896
2.1350 -0.9500 -1.1463 0.9896
1.4186 -0.4555 -0.7309 0.9934
1.4210 -0.3458 -0.7174 0.9935
1.5300 -0.3145 -0.7662 0.9931
1.8686 -0.3145 -0.9295 0.9916
2.3107 -0.3039 -1.1432 0.9897
2.3260 -0.1369 -1.1429 0.9897
2.3297 0.0307 -1.1429 0.9897
2.3272 0.1145 -1.1429 0.9897
2.3217 0.1982 -1.1430 0.9897
2.2711 0.5296 -1.1439 0.9897
2.2512 0.6112 -1.1442 0.9897
2.2285 0.6920 -1.1446 0.9897
2.1748 0.8512 -1.1456 0.9896
2.1438 0.9293 -1.1461 0.9896
1.7908 1.1054 -1.0323 0.9907
1.5322 1.1054 -0.9267 0.9916
1.4297 1.1118 -0.8884 0.9920
1.4363 1.2023 -0.9188 0.9917
1.5715 1.7565 -1.1561 0.9896
1.5088 1.8136 -1.1572 0.9895
1.4439 1.8685 -1.1583 0.9895
1.0920 2.1079 -1.1645 0.9895
0.9397 2.1859 -1.1671 0.9895
0.6194 2.3091 -1.1727 0.9894
0.5365 2.3328 -1.1742 0.9894
0.3683 2.3713 -1.1771 0.9894
0.1111 2.4063 -1.1816 0.9893
0.0244 2.4118 -1.1831 0.9893
-0.0624 2.4142 -1.1846 0.9893
-0.2365 2.4096 -1.1877 0.9893
-0.4102 2.3925 -1.1907 0.9892
-0.4966 2.3792 -1.1922 0.9892
-0.5827 2.3628 -1.1937 0.9892
-0.6681 2.3432 -1.1952 0.9892
-0.7529 2.3205 -1.1967 0.9892
-0.8370 2.2947 -1.1981 0.9892
-1.0022 2.2340 -1.2010 0.9892
-1.1630 2.1611 -1.2038 0.9891
-1.2414 2.1203 -1.2052 0.9891
-1.3184 2.0766 -1.2065 0.9891
-0.9494 1.1054 -0.7147 0.9935
-1.0207 1.1054 -0.7380 0.9933
-1.0970 1.1054 -0.7639 0.9931
-0.9781 -0.4793 -0.5651 0.9951
-0.9701 -0.5195 -0.5709 0.9951
-1.9372 -1.3243 -1.2174 0.9895
-1.8869 -1.3921 -1.2165 0.9895
-1.8342 -1.4580 -1.2156 0.9895
-1.7792 -1.5219 -1.2146 0.9895
-1.7218 -1.5836 -1.2136 0.9895
-1.6623 -1.6431 -1.2126 0.9895
-1.5202 -1.7360 -1.1971 0.9897
-1.1383 -1.7554 -1.0854 0.9906
-0.8490 -1.8448 -1.0536 0.9909
-0.7126 -1.8968 -1.0512 0.9909
-0.6431 -1.9190 -1.0500 0.9909
-0.5730 -1.9386 -1.0487 0.9909
-0.5023 -1.9557 -1.0475 0.9909
-0.4311 -1.9702 -1.0463 0.9910
-0.2155 -1.9979 -1.0425 0.9910
-0.1433 -2.0020 -1.0412 0.9910
-0.0711 -2.0034 -1.0400 0.9910
0.5641 -1.9014 -1.0289 0.9911
0.6315 -1.8777 -1.0277 0.9911
0.6978 -1.8517 -1.0266 0.9911
0.7631 -1.8233 -1.0254 0.9911
1.1365 -1.7487 -1.0820 0.9906
1.5302 -1.6220 -1.1568 0.9900
1.8337 -1.2508 -1.1515 0.9900
1.8763 -1.1832 -1.1508 0.9901
1.9165 -1.1143 -1.1501 0.9901
1.9895 -0.9725 -1.1488 0.9901
1.4130 -0.3983 -0.7616 0.9934
1.8686 -0.3145 -0.9830 0.9915
2.1975 -0.2089 -1.1452 0.9901
2.2046 0.1085 -1.1451 0.9901
2.1674 0.4239 -1.1457 0.9901
2.1324 0.5789 -1.1463 0.9901
2.1109 0.6555 -1.1467 0.9901
2.0867 0.7313 -1.1471 0.9901
2.0305 0.8802 -1.1481 0.9901
1.9639 1.0250 -1.1493 0.9901
1.9269 1.0956 -1.1499 0.9901
1.6545 1.1054 -1.0323 0.9911
1.4956 1.2520 -1.0119 0.9912
1.4283 1.7169 -1.1586 0.9900
1.2385 1.8661 -1.1619 0.9900
1.1718 1.9114 -1.1631 0.9899
1.1034 1.9543 -1.1643 0.9899
0.8892 2.0684 -1.1680 0.9899
0.7398 2.1318 -1.1706 0.9899
0.5859 2.1845 -1.1733 0.9899
0.1866 2.2674 -1.1803 0.9898
-0.0590 2.2826 -1.1846 0.9898
-0.3057 2.2712 -1.1889 0.9897
-0.3877 2.2614 -1.1903 0.9897
-0.6314 2.2144 -1.1946 0.9897
-0.8693 2.1409 -1.1987 0.9896
-1.0233 2.0775 -1.2014 0.9896
-1.0986 2.0415 -1.2027 0.9896
-1.1726 2.0028 -1.2040 0.9896
-1.2452 1.9614 -1.2053 0.9896
-0.8659 1.2612 -0.7937 0.9931
-0.8731 1.1784 -0.7608 0.9934
-1.0207 1.1054 -0.7805 0.9932
-1.0970 1.1054 -0.8079 0.9930
-0.9599 -0.4705 -0.5855 0.9951
-0.9546 -0.5113 -0.5931 0.9951
-1.8772 -1.1865 -1.2163 0.9899
-1.5725 -1.5543 -1.2110 0.9900
-1.4542 -1.6605 -1.2089 0.9900
-1.3922 -1.7103 -1.2078 0.9900
-1.3124 -1.7362 -1.1920 0.9901
-1.0469 -1.7493 -1.1166 0.9907
-0.9651 -1.7529 -1.0960 0.9909
-0.8861 -1.7561 -1.0773 0.9911
-0.8095 -1.7590 -1.0605 0.9912
-0.7395 -1.7720 -1.0516 0.9913
-0.6745 -1.7955 -1.0505 0.9913
-0.6088 -1.8166 -1.0494 0.9913
-0.5425 -1.8353 -1.0482 0.9913
-0.4081 -1.8654 -1.0459 0.9913
-0.2723 -1.8856 -1.0435 0.9913
-0.1357 -1.8960 -1.0411 0.9914
-0.0673 -1.8975 -1.0399 0.9914
0.4045 -1.8397 -1.0317 0.9914
0.4699 -1.8219 -1.0305 0.9915
0.5346 -1.8019 -1.0294 0.9915
0.5984 -1.7795 -1.0283 0.9915
0.6641 -1.7623 -1.0315 0.9914
0.7354 -1.7572 -1.0433 0.9914
0.8858 -1.7509 -1.0747 0.9911
1.1301 -1.7388 -1.1358 0.9906
1.3960 -1.5908 -1.1592 0.9904
1.4511 -1.5382 -1.1582 0.9904
1.5043 -1.4838 -1.1573 0.9904
1.5555 -1.4276 -1.1564 0.9904
1.6047 -1.3697 -1.1555 0.9904
1.6517 -1.3102 -1.1547 0.9904
1.6967 -1.2490 -1.1539 0.9904
1.7394 -1.1864 -1.1532 0.9904
1.8180 -1.0570 -1.1518 0.9905
1.9470 -0.7837 -1.1496 0.9905
1.4158 -0.5115 -0.8245 0.9932
1.4133 -0.4538 -0.8130 0.9933
1.4092 -0.3430 -0.7944 0.9934
1.5300 -0.3145 -0.8555 0.9929
1.8686 -0.3145 -1.0378 0.9914
2.0768 -0.2731 -1.1473 0.9905
2.0851 -0.1982 -1.1471 0.9905
2.0936 -0.0477 -1.1470 0.9905
2.0868 0.1781 -1.1471 0.9905
2.0793 0.2531 -1.1472 0.9905
2.0564 0.4022 -1.1476 0.9905
