ply
format ascii 1.0
element vertex 1602
property float32 x
property float32 y
property float32 z
property float32 I
end_header
9.5371 -3.1215 -0.7358 0.9606
7.2160 -2.0782 -0.5506 0.9703
8.5713 -2.1385 -0.6477 0.9652
11.3045 -1.9719 -0.8414 0.9550
13.0330 -0.3791 -0.9560 0.9490
13.0373 0.0890 -0.9559 0.9491
12.9183 1.9583 -0.9580 0.9489
12.6863 3.3499 -0.9621 0.9487
12.3315 4.7245 -0.9683 0.9484
12.0265 5.6279 -0.9736 0.9481
11.8534 6.0747 -0.9766 0.9480
11.6665 6.5180 -0.9799 0.9478
11.2514 7.3925 -0.9871 0.9474
10.7810 8.2488 -0.9953 0.9470
10.4787 8.6311 -0.9954 0.9470
9.8612 8.7352 -0.9659 0.9485
8.5443 8.7402 -0.8962 0.9522
7.8728 9.3043 -0.8937 0.9523
0.8117 1.2986 -0.1123 0.9939
0.7760 1.3468 -0.1140 0.9938
5.5523 11.4671 -0.9342 0.9502
5.1735 11.7416 -0.9408 0.9498
4.7830 12.0060 -0.9476 0.9495
3.5437 12.7349 -0.9692 0.9484
3.1085 12.9547 -0.9768 0.9480
2.2060 13.3563 -0.9926 0.9472
1.7393 13.5371 -1.0007 0.9467
1.2626 13.7038 -1.0090 0.9463
0.7764 13.8558 -1.0175 0.9459
0.2809 13.9927 -1.0262 0.9454
-0.7363 14.2186 -1.0439 0.9445
-1.2571 14.3065 -1.0530 0.9440
-1.7854 14.3770 -1.0622 0.9436
-2.3205 14.4294 -1.0716 0.9431
-3.4092 14.4780 -1.0906 0.9421
-3.9614 14.4731 -1.1002 0.9416
-2.9157 9.3240 -0.7163 0.9616
-5.0780 14.4022 -1.1197 0.9406
-6.2054 14.2468 -1.1394 0.9396
-7.3366 14.0034 -1.1591 0.9386
-7.9012 13.8478 -1.1690 0.9381
-5.9068 7.5776 -0.7045 0.9622
-6.6464 6.3814 -0.6756 0.9637
-7.1166 6.3580 -0.6997 0.9624
-7.6596 6.3637 -0.7302 0.9608
-8.2648 6.3793 -0.7655 0.9590
-8.9356 6.3987 -0.8058 0.9569
-9.6050 6.3692 -0.8450 0.9548
-15.0454 9.2168 -1.2937 0.9317
-15.4995 8.7458 -1.3049 0.9311
-16.8592 8.7305 -1.3921 0.9267
-19.3407 7.5040 -1.5211 0.9202
-20.6837 3.9905 -1.5445 0.9190
-20.8536 3.2517 -1.5475 0.9188
-21.1826 0.2344 -1.5533 0.9185
-18.4787 -1.7916 -1.3613 0.9282
-18.0879 -3.7489 -1.3544 0.9286
-8.9398 -3.2429 -0.6973 0.9626
-18.8340 -8.4060 -1.5123 0.9206
-2.3033 -12.5365 -1.2237 0.9501
-0.9237 -12.4613 -1.1996 0.9510
-0.4726 -12.4045 -1.1918 0.9513
2.1072 -11.7571 -1.1467 0.9531
0.7633 -3.5251 -0.3463 0.9856
3.2981 -11.2547 -1.1259 0.9540
1.5408 -4.6346 -0.4689 0.9806
4.0493 -10.8610 -1.1128 0.9545
5.7643 -9.6954 -1.0829 0.9557
2.9794 -4.6249 -0.5282 0.9781
1.5572 -2.0736 -0.2490 0.9896
7.2282 -8.3095 -1.0573 0.9567
4.3511 -4.6536 -0.6116 0.9747
8.2081 -7.0731 -1.0402 0.9574
5.7862 -4.6349 -0.7117 0.9706
0.7657 -0.5694 -0.0916 0.9962
0.7861 -0.5419 -0.0917 0.9962
0.8065 -0.5143 -0.0918 0.9962
0.9419 -0.5095 -0.1028 0.9957
4.3291 -2.1445 -0.4638 0.9808
8.5720 -3.5048 -0.8891 0.9635
5.7556 -2.1154 -0.5887 0.9757
7.2178 -2.0787 -0.7211 0.9703
8.9863 -1.9022 -0.8818 0.9638
9.9776 -1.7404 -0.9724 0.9601
10.3485 -1.4245 -1.0029 0.9589
10.3861 -1.0514 -1.0022 0.9589
10.3732 1.1934 -1.0024 0.9589
10.2778 1.9378 -1.0041 0.9588
10.0497 3.0435 -1.0081 0.9587
9.8408 3.7703 -1.0117 0.9585
9.4429 4.8394 -1.0187 0.9583
9.1213 5.5347 -1.0243 0.9580
8.9437 5.8763 -1.0274 0.9579
8.1224 7.1949 -1.0417 0.9573
7.3913 8.1247 -1.0545 0.9568
7.1119 8.4049 -1.0570 0.9567
0.9492 1.3007 -0.1546 0.9936
0.8768 1.2968 -0.1503 0.9937
0.7407 1.3994 -0.1520 0.9937
4.0346 9.1569 -0.9607 0.9606
3.4057 9.5304 -0.9716 0.9601
3.0794 9.7031 -0.9773 0.9599
2.7454 9.8659 -0.9832 0.9597
2.4039 10.0185 -0.9891 0.9594
2.0553 10.1604 -0.9952 0.9592
1.6998 10.2914 -1.0014 0.9590
1.3376 10.4111 -1.0077 0.9587
0.2147 10.6987 -1.0273 0.9579
-0.1706 10.7696 -1.0341 0.9576
-1.3539 10.9023 -1.0547 0.9568
-1.7560 10.9189 -1.0617 0.9565
-2.5687 10.9086 -1.0759 0.9560
-3.8011 10.7805 -1.0974 0.9551
-4.2130 10.7068 -1.1046 0.9548
-4.6245 10.6173 -1.1118 0.9545
-6.2523 10.0977 -1.1402 0.9534
-7.0452 9.7399 -1.1541 0.9528
-5.8200 6.4522 -0.8342 0.9657
-6.1942 6.3901 -0.8544 0.9649
-7.1893 6.4229 -0.9255 0.9620
-8.3350 6.4334 -1.0108 0.9586
-8.9753 6.4271 -1.0598 0.9566
-9.6247 6.3823 -1.1087 0.9547
-13.3348 6.3090 -1.4163 0.9424
-13.8385 5.3692 -1.4251 0.9421
-14.0604 4.8822 -1.4289 0.9419
-14.4414 3.8788 -1.4356 0.9417
-14.5993 3.3643 -1.4383 0.9416
-14.8476 2.3152 -1.4427 0.9414
-14.9374 1.7826 -1.4442 0.9413
-15.0038 1.2463 -1.4454 0.9413
-15.0466 0.7072 -1.4461 0.9413
-15.0612 -0.3742 -1.4464 0.9413
-15.0330 -0.9143 -1.4459 0.9413
-13.1905 -1.7588 -1.2776 0.9479
-12.7622 -3.1268 -1.2615 0.9486
-12.6162 -3.5756 -1.2589 0.9487
-8.9421 -3.2437 -0.9132 0.9625
-13.4983 -6.0246 -1.4191 0.9423
-0.7446 -10.0452 -1.1965 0.9602
-0.0217 -9.9665 -1.1839 0.9606
0.1560 -4.6233 -0.5495 0.9815
0.1445 -2.0721 -0.2467 0.9917
0.2179 -2.0573 -0.2458 0.9917
1.7133 -9.5593 -1.1536 0.9616
0.7631 -3.5241 -0.4283 0.9856
1.5411 -4.6353 -0.5802 0.9805
3.3107 -8.8798 -1.1257 0.9625
3.6104 -8.7145 -1.1205 0.9627
3.9030 -8.5402 -1.1154 0.9629
2.9799 -4.6257 -0.6536 0.9781
4.3529 -4.6555 -0.7571 0.9747
6.3955 -6.3658 -1.0719 0.9643
6.5980 -6.1119 -1.0683 0.9644
0.7251 -0.6248 -0.1137 0.9962
0.7659 -0.5696 -0.1134 0.9962
0.7863 -0.5421 -0.1134 0.9962
0.8583 -0.5049 -0.1183 0.9960
0.9418 -0.5094 -0.1272 0.9957
7.1249 -2.9131 -0.9143 0.9695
7.2195 -2.0792 -0.8924 0.9702
7.4256 -1.8526 -0.9091 0.9696
8.6483 -0.8755 -1.0325 0.9656
8.6799 0.3711 -1.0320 0.9656
8.6635 0.6827 -1.0323 0.9656
8.6372 0.9937 -1.0327 0.9656
8.5555 1.6130 -1.0342 0.9655
8.5000 1.9209 -1.0351 0.9655
8.4348 2.2272 -1.0363 0.9655
1.6671 0.9314 -0.2268 0.9923
7.2556 5.1493 -1.0569 0.9648
6.7190 5.9518 -1.0662 0.9645
6.5220 6.2091 -1.0697 0.9644
1.0916 1.1999 -0.1927 0.9935
1.0116 1.1956 -0.1860 0.9937
0.9408 1.1964 -0.1808 0.9939
0.8546 1.2639 -0.1812 0.9939
0.8124 1.2998 -0.1821 0.9938
0.7425 1.4027 -0.1885 0.9936
4.0723 8.4104 -1.1100 0.9631
3.1161 8.7200 -1.1000 0.9634
2.7685 8.7235 -1.0872 0.9638
2.4283 8.7267 -1.0760 0.9642
2.0946 8.7295 -1.0664 0.9645
0.8051 8.7381 -1.0424 0.9653
-0.1385 8.7438 -1.0388 0.9654
-1.0894 8.7729 -1.0501 0.9650
-1.4112 8.7748 -1.0557 0.9648
-2.0601 8.7485 -1.0676 0.9644
-2.7334 8.7411 -1.0879 0.9638
-3.0816 8.7399 -1.1008 0.9634
-4.5747 8.7317 -1.1709 0.9611
-5.4027 8.7255 -1.2191 0.9595
-5.8436 8.7217 -1.2471 0.9586
-6.3056 8.7175 -1.2780 0.9576
-6.6876 7.9717 -1.2360 0.9590
-7.4019 8.2059 -1.3127 0.9565
-6.6787 6.4124 -1.0998 0.9634
-8.9254 6.8892 -1.3393 0.9556
-9.1997 6.5878 -1.3441 0.9554
-10.1752 5.2692 -1.3611 0.9549
-10.5819 4.5492 -1.3682 0.9547
-11.3315 2.6113 -1.3813 0.9542
-11.5165 1.7957 -1.3845 0.9541
-11.5833 1.3823 -1.3857 0.9541
-11.6788 0.1292 -1.3874 0.9540
-11.6544 -0.7088 -1.3869 0.9541
-11.6158 -1.1262 -1.3863 0.9541
-11.5597 -1.5413 -1.3853 0.9541
-10.0014 -2.0729 -1.2133 0.9597
-9.9071 -2.4273 -1.2116 0.9597
-9.5377 -3.4598 -1.2052 0.9600
-4.7776 -2.1324 -0.6215 0.9791
-1.5437 -8.4024 -1.2105 0.9661
-1.2356 -8.4148 -1.2051 0.9662
-0.3195 -8.3861 -1.1891 0.9667
0.2179 -2.0570 -0.2931 0.9917
2.2703 -7.7474 -1.1439 0.9679
2.7976 -7.5036 -1.1347 0.9682
3.3029 -7.2270 -1.1259 0.9684
3.7844 -6.9193 -1.1174 0.9686
2.9804 -4.6264 -0.7798 0.9780
1.4994 -2.1535 -0.3718 0.9895
1.5576 -2.0742 -0.3675 0.9896
4.4514 -5.1173 -0.9610 0.9730
4.9323 -4.5689 -0.9526 0.9732
0.7267 -0.6262 -0.1359 0.9961
0.7462 -0.5977 -0.1355 0.9961
0.7662 -0.5698 -0.1353 0.9961
0.8583 -0.5049 -0.1411 0.9960
6.0072 -2.7117 -0.9338 0.9737
6.2369 -2.0414 -0.9298 0.9738
6.2989 -1.8141 -0.9288 0.9739
1.5138 -0.3204 -0.2192 0.9938
1.4978 -0.2613 -0.2154 0.9939
1.4757 -0.2031 -0.2111 0.9940
1.4480 -0.1466 -0.2062 0.9941
7.4227 -0.4830 -1.0539 0.9704
7.3933 0.8506 -1.0545 0.9704
7.2734 1.6437 -1.0565 0.9703
7.2165 1.9055 -1.0575 0.9703
7.1511 2.1657 -1.0587 0.9703
6.9953 2.6801 -1.0614 0.9702
6.5839 3.6784 -1.0686 0.9700
6.4606 3.9202 -1.0707 0.9699
6.1899 4.3930 -1.0755 0.9698
6.0426 4.6233 -1.0780 0.9697
5.7246 5.0709 -1.0836 0.9696
5.3761 5.4993 -1.0897 0.9694
5.1906 5.7057 -1.0929 0.9693
4.1559 6.6489 -1.1110 0.9688
3.9285 6.8180 -1.1149 0.9687
3.6947 6.9801 -1.1190 0.9686
2.9566 7.4214 -1.1319 0.9682
2.6989 7.5526 -1.1364 0.9681
1.6166 7.9918 -1.1553 0.9676
0.4640 8.2809 -1.1752 0.9670
0.1671 8.3237 -1.1796 0.9669
-0.4340 8.3813 -1.1891 0.9667
-1.3502 8.3958 -1.2049 0.9662
-1.6584 8.3809 -1.2105 0.9661
-1.9676 8.3560 -1.2163 0.9659
-2.2775 8.3208 -1.2223 0.9657
-2.5878 8.2754 -1.2285 0.9656
-2.8961 8.2140 -1.2341 0.9654
-3.2030 8.1399 -1.2394 0.9653
-3.5081 8.0542 -1.2447 0.9651
-4.7022 7.5942 -1.2656 0.9646
-4.9916 7.4501 -1.2706 0.9644
-6.0978 6.7602 -1.2899 0.9639
-6.8592 6.1280 -1.3032 0.9635
-7.5471 5.4044 -1.3152 0.9632
-7.7579 5.1443 -1.3189 0.9631
-7.9586 4.8755 -1.3224 0.9630
-8.4966 4.0199 -1.3318 0.9627
-8.6531 3.7200 -1.3345 0.9627
-8.9299 3.1007 -1.3394 0.9625
-9.0495 2.7825 -1.3415 0.9625
-9.1563 2.4593 -1.3433 0.9624
-9.2499 2.1316 -1.3450 0.9624
-9.3302 1.8001 -1.3464 0.9623
-9.5230 -0.2366 -1.3497 0.9622
-9.4757 -0.9187 -1.3489 0.9623
-8.4599 -1.7534 -1.2241 0.9657
-5.3205 -2.1491 -0.8130 0.9771
-7.5429 -3.3666 -1.1704 0.9672
-0.5352 -7.2210 -1.1928 0.9711
-0.2746 -7.2080 -1.1883 0.9712
0.1560 -4.6248 -0.7623 0.9814
0.2179 -2.0566 -0.3407 0.9917
1.2441 -6.9417 -1.1618 0.9718
0.7628 -3.5228 -0.5938 0.9855
1.7264 -6.7850 -1.1534 0.9720
1.9618 -6.6947 -1.1493 0.9721
1.5417 -4.6372 -0.8050 0.9804
2.6426 -6.3784 -1.1374 0.9724
1.2920 -2.1732 -0.4165 0.9898
1.5000 -2.1545 -0.4325 0.9894
1.5579 -2.0746 -0.4274 0.9895
1.6816 -2.0795 -0.4406 0.9892
4.2920 -3.9757 -0.9638 0.9766
0.7480 -0.5991 -0.1579 0.9961
0.7674 -0.5707 -0.1576 0.9961
0.8583 -0.5049 -0.1640 0.9960
0.9666 -0.4363 -0.1747 0.9957
0.9865 -0.4033 -0.1756 0.9957
5.3828 -1.9784 -0.9447 0.9770
5.4441 -1.7819 -0.9437 0.9770
6.4084 -1.1178 -1.0716 0.9740
6.4409 -0.8866 -1.0711 0.9740
6.4835 -0.4219 -1.0703 0.9740
6.4934 -0.1889 -1.0702 0.9740
6.4957 0.0444 -1.0701 0.9740
6.4905 0.2775 -1.0702 0.9740
6.4777 0.5104 -1.0704 0.9740
6.4573 0.7429 -1.0708 0.9740
6.4294 0.9747 -1.0713 0.9740
6.3940 1.2055 -1.0719 0.9740
6.3510 1.4353 -1.0726 0.9739
6.3006 1.6637 -1.0735 0.9739
6.1773 2.1157 -1.0757 0.9739
5.9371 2.7783 -1.0799 0.9738
5.8425 2.9942 -1.0815 0.9737
5.7407 3.2073 -1.0833 0.9737
5.6317 3.4173 -1.0852 0.9736
5.5157 3.6240 -1.0872 0.9736
5.2627 4.0267 -1.0916 0.9735
5.1260 4.2222 -1.0940 0.9734
4.9825 4.4136 -1.0965 0.9734
4.6757 4.7829 -1.1019 0.9732
4.5127 4.9605 -1.1047 0.9732
4.3433 5.1330 -1.1077 0.9731
4.1677 5.3002 -1.1108 0.9730
3.6053 5.7680 -1.1206 0.9728
3.4065 5.9120 -1.1240 0.9727
3.2022 6.0496 -1.1276 0.9726
2.5585 6.4222 -1.1388 0.9724
2.3343 6.5322 -1.1428 0.9723
2.1057 6.6349 -1.1468 0.9722
1.8727 6.7300 -1.1508 0.9721
1.6358 6.8173 -1.1550 0.9720
1.1508 6.9678 -1.1634 0.9718
0.9033 7.0306 -1.1677 0.9717
0.6528 7.0849 -1.1721 0.9716
0.1439 7.1674 -1.1810 0.9714
-0.1140 7.1953 -1.1855 0.9712
-0.3736 7.2140 -1.1900 0.9711
-0.6347 7.2235 -1.1946 0.9710
-1.4239 7.1955 -1.2084 0.9707
-1.9512 7.1287 -1.2176 0.9705
-2.4761 7.0227 -1.2267 0.9703
-2.7367 6.9550 -1.2313 0.9702
-3.2523 6.7900 -1.2403 0.9699
-3.5064 6.6927 -1.2447 0.9698
-3.7576 6.5857 -1.2491 0.9697
-4.4893 6.2064 -1.2619 0.9694
-4.7245 6.0609 -1.2660 0.9693
-4.9547 5.9060 -1.2700 0.9692
-5.1794 5.7421 -1.2739 0.9691
-5.6111 5.3873 -1.2814 0.9690
-5.8171 5.1970 -1.2850 0.9689
-6.0161 4.9983 -1.2885 0.9688
-6.3916 4.5769 -1.2951 0.9686
-6.5673 4.3548 -1.2981 0.9686
-7.0421 3.6467 -1.3064 0.9684
-7.6407 2.3493 -1.3169 0.9681
-7.8067 1.7990 -1.3198 0.9680
-7.9284 1.2362 -1.3219 0.9680
-8.0047 0.6649 -1.3232 0.9680
-8.0328 -0.1996 -1.3237 0.9680
-6.7652 -1.9174 -1.1584 0.9719
-6.6735 -2.1530 -1.1552 0.9720
-6.5829 -2.3879 -1.1536 0.9720
-6.3745 -2.8451 -1.1500 0.9721
-1.1572 -6.2986 -1.2037 0.9743
-0.2406 -6.3143 -1.1877 0.9746
0.1446 -2.0731 -0.3906 0.9916
0.3843 -2.1439 -0.4094 0.9912
0.7629 -3.5232 -0.6776 0.9854
1.5145 -5.1682 -1.0123 0.9783
1.5426 -4.6398 -0.9190 0.9803
2.2117 -4.8393 -1.0001 0.9786
2.3771 -4.7431 -0.9972 0.9786
2.6961 -4.5349 -0.9916 0.9788
1.6811 -2.0788 -0.5025 0.9892
3.4185 -3.9299 -0.9790 0.9790
3.5491 -3.7958 -0.9768 0.9791
0.7498 -0.6006 -0.1806 0.9961
0.7693 -0.5721 -0.1802 0.9961
0.7887 -0.5437 -0.1801 0.9961
0.8081 -0.5153 -0.1801 0.9961
4.7933 -1.7617 -0.9599 0.9794
5.5549 -1.5998 -1.0865 0.9767
5.6470 -1.1954 -1.0849 0.9768
5.6830 -0.9913 -1.0843 0.9768
5.7504 -0.3742 -1.0831 0.9768
5.7614 0.0393 -1.0829 0.9768
5.7452 0.4527 -1.0832 0.9768
5.7019 0.8644 -1.0840 0.9768
5.6316 1.2727 -1.0852 0.9768
5.5344 1.6761 -1.0869 0.9767
5.4758 1.8754 -1.0879 0.9767
5.3388 2.2684 -1.0903 0.9767
5.2605 2.4617 -1.0917 0.9766
5.1758 2.6525 -1.0932 0.9766
5.0846 2.8408 -1.0948 0.9766
4.9871 3.0261 -1.0965 0.9765
1.9964 1.3117 -0.4490 0.9903
1.7588 1.3457 -0.4163 0.9910
4.5351 3.7355 -1.1043 0.9764
4.4070 3.9037 -1.1066 0.9763
4.1333 4.2280 -1.1114 0.9762
3.8370 4.5347 -1.1165 0.9761
3.3525 4.9582 -1.1250 0.9759
3.1808 5.0889 -1.1280 0.9759
3.0043 5.2140 -1.1311 0.9758
2.6373 5.4468 -1.1375 0.9757
2.4472 5.5541 -1.1408 0.9756
2.2529 5.6551 -1.1442 0.9755
2.0547 5.7497 -1.1476 0.9755
1.4380 5.9929 -1.1584 0.9752
1.2258 6.0600 -1.1621 0.9752
1.0108 6.1198 -1.1659 0.9751
0.1261 6.2836 -1.1813 0.9747
-0.3272 6.3185 -1.1892 0.9746
-0.5557 6.3238 -1.1932 0.9745
-0.7849 6.3209 -1.1972 0.9744
-1.0147 6.3097 -1.2012 0.9743
-1.2447 6.2902 -1.2052 0.9742
-2.1605 6.1275 -1.2212 0.9739
-2.3867 6.0655 -1.2252 0.9738
-3.0537 5.8286 -1.2368 0.9736
-3.4851 5.6286 -1.2443 0.9734
-4.8681 4.6740 -1.2685 0.9729
-5.2157 4.3333 -1.2745 0.9728
-5.5374 3.9653 -1.2802 0.9727
-5.6879 3.7717 -1.2828 0.9726
-5.9663 3.3666 -1.2876 0.9725
-6.0939 3.1557 -1.2899 0.9725
-6.3242 2.7188 -1.2939 0.9724
-6.5202 2.2640 -1.2973 0.9723
-6.6047 2.0308 -1.2988 0.9723
-6.7462 1.5546 -1.3013 0.9722
-6.8499 1.0681 -1.3031 0.9722
-6.8873 0.8219 -1.3037 0.9722
-6.9407 0.0768 -1.3047 0.9721
-6.9388 -0.1724 -1.3046 0.9721
-6.9055 -0.6695 -1.3040 0.9722
-6.8330 -1.1621 -1.3028 0.9722
-5.7691 -1.8612 -1.1394 0.9756
-5.6918 -2.0647 -1.1381 0.9757
-5.5140 -2.4610 -1.1350 0.9757
-0.9014 -4.9062 -1.0544 0.9798
-0.7226 -4.9208 -1.0513 0.9799
-0.1607 -2.1674 -0.4594 0.9912
-0.0107 -4.9148 -1.0389 0.9801
0.1561 -4.6263 -0.9785 0.9813
0.2178 -2.0559 -0.4370 0.9916
0.3013 -2.1161 -0.4518 0.9913
0.8545 -4.7674 -1.0238 0.9804
1.8232 -4.4007 -1.0069 0.9807
1.0064 -2.2022 -0.5118 0.9901
1.0736 -2.1421 -0.5065 0.9903
2.2681 -4.1469 -0.9991 0.9809
1.5584 -2.0752 -0.5486 0.9894
1.6806 -2.0782 -0.5649 0.9891
3.1769 -3.3977 -0.9833 0.9812
3.2902 -3.2749 -0.9813 0.9812
3.3990 -3.1486 -0.9794 0.9812
0.7317 -0.6305 -0.2042 0.9961
0.7509 -0.6015 -0.2034 0.9961
0.7701 -0.5727 -0.2029 0.9961
0.7892 -0.5441 -0.2026 0.9961
0.8084 -0.5154 -0.2027 0.9961
4.0295 -2.1796 -0.9684 0.9814
4.1653 -1.8802 -0.9660 0.9815
4.2975 -1.7571 -0.9814 0.9812
4.9847 -1.4356 -1.0965 0.9790
5.1618 -0.3359 -1.0934 0.9791
5.1699 -0.1504 -1.0933 0.9791
5.1571 0.4064 -1.0935 0.9791
5.0891 0.9595 -1.0947 0.9790
4.9131 1.6827 -1.0977 0.9790
4.6416 2.3788 -1.1025 0.9789
1.8217 1.1054 -0.4504 0.9913
1.6980 1.1156 -0.4295 0.9917
1.6756 1.1892 -0.4343 0.9916
1.6277 1.3407 -0.4457 0.9914
3.8263 3.6427 -1.1167 0.9786
3.7003 3.7852 -1.1189 0.9786
3.2928 4.1875 -1.1260 0.9785
3.1474 4.3127 -1.1286 0.9784
2.9975 4.4332 -1.1312 0.9784
2.8432 4.5487 -1.1339 0.9783
2.6846 4.6592 -1.1366 0.9783
2.5219 4.7644 -1.1395 0.9782
1.6524 5.2066 -1.1547 0.9779
1.4685 5.2772 -1.1579 0.9779
0.9003 5.4508 -1.1678 0.9777
0.7061 5.4955 -1.1712 0.9776
0.3118 5.5645 -1.1781 0.9775
0.1122 5.5886 -1.1815 0.9774
-0.2908 5.6154 -1.1886 0.9773
-0.4937 5.6181 -1.1921 0.9772
-0.9008 5.6014 -1.1992 0.9771
-1.1046 5.5819 -1.2028 0.9770
-1.3081 5.5550 -1.2063 0.9769
-1.7133 5.4788 -1.2134 0.9768
-1.9143 5.4294 -1.2169 0.9767
-2.1140 5.3726 -1.2204 0.9767
-2.3121 5.3082 -1.2239 0.9766
-2.7019 5.1571 -1.2307 0.9765
-3.0815 4.9767 -1.2373 0.9764
-3.4483 4.7673 -1.2437 0.9762
-3.6263 4.6520 -1.2468 0.9762
-3.8002 4.5298 -1.2498 0.9761
-3.9697 4.4009 -1.2528 0.9761
-4.1346 4.2654 -1.2557 0.9760
-4.4493 3.9750 -1.2612 0.9759
-4.7422 3.6603 -1.2663 0.9758
-4.8798 3.4944 -1.2687 0.9758
-5.0111 3.3229 -1.2710 0.9757
-5.3653 2.7784 -1.2772 0.9756
-5.4693 2.5877 -1.2790 0.9756
-5.5660 2.3928 -1.2807 0.9755
-5.6552 2.1942 -1.2822 0.9755
-5.8759 1.5782 -1.2861 0.9754
-5.9334 1.3673 -1.2871 0.9754
-6.0236 0.9392 -1.2886 0.9754
-6.0801 0.5050 -1.2896 0.9754
-6.1025 0.0675 -1.2900 0.9754
-6.1009 -0.1516 -1.2900 0.9754
-6.0906 -0.3704 -1.2898 0.9754
-6.0719 -0.5887 -1.2895 0.9754
-6.0446 -0.8060 -1.2890 0.9754
-6.0089 -1.0219 -1.2884 0.9754
-5.9647 -1.2362 -1.2876 0.9754
-5.8517 -1.6585 -1.2856 0.9754
-0.8095 -4.4060 -1.0528 0.9818
-0.4887 -4.4290 -1.0472 0.9819
-0.1687 -4.4289 -1.0417 0.9820
0.1446 -2.0738 -0.4886 0.9915
0.3009 -2.1129 -0.5016 0.9913
0.7630 -3.5238 -0.8474 0.9853
1.3624 -4.0979 -1.0149 0.9824
1.5021 -2.1574 -0.6178 0.9893
1.5586 -2.0756 -0.6100 0.9894
2.7658 -3.1796 -0.9904 0.9828
3.2604 -2.6116 -0.9818 0.9830
2.9142 -2.1672 -0.8535 0.9852
2.9991 -2.0674 -0.8561 0.9851
3.5069 -2.2362 -0.9775 0.9831
3.5802 -2.1061 -0.9762 0.9831
3.6490 -1.9738 -0.9750 0.9831
3.7132 -1.8394 -0.9739 0.9831
3.8868 -1.7546 -1.0023 0.9826
4.4186 -1.6240 -1.1064 0.9808
4.4703 -1.4632 -1.1055 0.9809
1.7287 -0.4979 -0.4228 0.9926
1.7451 -0.3694 -0.4192 0.9927
2.0254 -0.2788 -0.4805 0.9916
4.6836 0.2003 -1.1018 0.9809
4.6741 0.3683 -1.1019 0.9809
4.6382 0.7031 -1.1025 0.9809
4.6119 0.8695 -1.1030 0.9809
4.5801 1.0350 -1.1036 0.9809
4.5426 1.1995 -1.1042 0.9809
4.4997 1.3627 -1.1050 0.9809
4.4513 1.5245 -1.1058 0.9809
4.3974 1.6848 -1.1067 0.9808
4.2735 1.9998 -1.1089 0.9808
2.0914 1.0718 -0.5523 0.9904
1.9785 1.1054 -0.5326 0.9907
1.6824 1.1054 -0.4731 0.9918
1.6039 1.1383 -0.4622 0.9920
1.5914 1.2176 -0.4709 0.9918
3.5710 3.1632 -1.1212 0.9806
3.4610 3.2950 -1.1231 0.9806
3.3465 3.4232 -1.1251 0.9805
3.2274 3.5476 -1.1272 0.9805
2.7080 4.0050 -1.1362 0.9803
2.2767 4.3012 -1.1438 0.9802
1.9714 4.4742 -1.1491 0.9801
1.6533 4.6264 -1.1546 0.9800
1.4898 4.6943 -1.1575 0.9800
1.1549 4.8133 -1.1633 0.9799
0.8108 4.9090 -1.1694 0.9798
0.2806 5.0070 -1.1786 0.9796
0.1009 5.0272 -1.1817 0.9796
-0.2614 5.0484 -1.1881 0.9794
-0.4437 5.0492 -1.1913 0.9794
-0.6263 5.0435 -1.1944 0.9793
-0.8091 5.0312 -1.1976 0.9793
-0.9918 5.0122 -1.2008 0.9792
-1.1742 4.9865 -1.2040 0.9792
-1.3560 4.9542 -1.2072 0.9791
-1.5370 4.9151 -1.2103 0.9791
-1.8954 4.8170 -1.2166 0.9790
-2.2474 4.6921 -1.2227 0.9788
-2.4204 4.6198 -1.2258 0.9788
-2.5909 4.5410 -1.2287 0.9787
-2.7588 4.4556 -1.2317 0.9787
-3.3987 4.0513 -1.2428 0.9785
-3.8381 3.6850 -1.2505 0.9784
-4.2354 3.2691 -1.2574 0.9783
-4.5844 2.8084 -1.2635 0.9782
-4.7874 2.4792 -1.2671 0.9781
-4.8795 2.3086 -1.2687 0.9781
-4.9651 2.1345 -1.2702 0.9780
-5.1160 1.7764 -1.2728 0.9780
-5.2391 1.4072 -1.2750 0.9780
-5.2899 1.2190 -1.2758 0.9779
-5.3335 1.0290 -1.2766 0.9779
-5.4195 0.4502 -1.2781 0.9779
-5.4393 0.0602 -1.2785 0.9779
-5.4379 -0.1351 -1.2784 0.9779
-5.4289 -0.3302 -1.2783 0.9779
-5.4123 -0.5247 -1.2780 0.9779
-5.3882 -0.7184 -1.2776 0.9779
-5.1570 -1.6637 -1.2735 0.9780
-0.5886 -4.0084 -1.0490 0.9834
-0.1531 -4.0191 -1.0414 0.9835
-0.0087 -4.0123 -1.0389 0.9836
0.1447 -2.0741 -0.5383 0.9914
0.3004 -2.1097 -0.5518 0.9912
1.1072 -3.7782 -1.0194 0.9839
1.2393 -3.7276 -1.0171 0.9839
1.6221 -3.5493 -1.0104 0.9840
1.8647 -3.4094 -1.0062 0.9841
1.9819 -3.3335 -1.0041 0.9841
2.0961 -3.2537 -1.0021 0.9841
1.5027 -2.1584 -0.6809 0.9892
1.5589 -2.0759 -0.6722 0.9893
2.6193 -2.8014 -0.9930 0.9843
2.7136 -2.7011 -0.9913 0.9843
2.8914 -2.4916 -0.9882 0.9844
2.9746 -2.3827 -0.9868 0.9844
2.9153 -2.1681 -0.9407 0.9851
3.2679 -1.9224 -0.9817 0.9845
3.3311 -1.8018 -0.9806 0.9845
3.9825 -1.6283 -1.1140 0.9824
4.0350 -1.4831 -1.1131 0.9824
1.6303 -0.5336 -0.4442 0.9929
1.6566 -0.3507 -0.4384 0.9930
4.2738 -0.2781 -1.1089 0.9825
4.2806 -0.1245 -1.1088 0.9825
4.2786 0.1830 -1.1088 0.9825
4.2699 0.3365 -1.1090 0.9825
4.2128 0.7943 -1.1100 0.9824
4.1835 0.9454 -1.1105 0.9824
4.1491 1.0956 -1.1111 0.9824
4.0651 1.3923 -1.1125 0.9824
4.0156 1.5385 -1.1134 0.9824
3.9612 1.6831 -1.1144 0.9824
2.1338 1.0936 -0.6208 0.9901
1.6824 1.1054 -0.5212 0.9917
1.5575 1.1054 -0.4945 0.9921
1.5444 1.1817 -0.5035 0.9920
1.5303 1.2605 -0.5133 0.9918
3.1565 3.0050 -1.1284 0.9822
3.0515 3.1215 -1.1302 0.9821
2.7124 3.4494 -1.1362 0.9820
2.3392 3.7424 -1.1427 0.9819
1.9352 3.9967 -1.1497 0.9818
1.7943 4.0722 -1.1522 0.9818
1.6505 4.1430 -1.1547 0.9817
1.3551 4.2698 -1.1599 0.9817
1.0500 4.3760 -1.1652 0.9816
0.7368 4.4609 -1.1706 0.9815
0.4168 4.5237 -1.1762 0.9814
0.2548 4.5467 -1.1791 0.9814
-0.4025 4.5805 -1.1905 0.9812
-0.5680 4.5741 -1.1934 0.9811
-0.7336 4.5618 -1.1963 0.9811
-0.8991 4.5435 -1.1992 0.9810
-1.0641 4.5191 -1.2021 0.9810
-1.3922 4.4522 -1.2078 0.9809
-1.5548 4.4097 -1.2106 0.9809
-1.7161 4.3612 -1.2135 0.9808
-2.0338 4.2461 -1.2190 0.9807
-2.1898 4.1797 -1.2217 0.9807
-2.3436 4.1074 -1.2244 0.9807
-2.4949 4.0293 -1.2271 0.9806
-2.9317 3.7610 -1.2347 0.9805
-3.0708 3.6605 -1.2371 0.9805
-1.4711 1.3143 -0.5108 0.9919
-3.8224 2.9504 -1.2502 0.9802
-4.0363 2.6765 -1.2540 0.9802
-4.2293 2.3864 -1.2573 0.9801
-4.3175 2.2358 -1.2589 0.9801
-4.4000 2.0817 -1.2603 0.9801
-4.5473 1.7643 -1.2629 0.9800
-4.7220 1.2683 -1.2659 0.9800
-4.7674 1.0986 -1.2667 0.9800
-4.8387 0.7545 -1.2680 0.9800
-4.8834 0.4056 -1.2687 0.9800
-4.8917 -0.2975 -1.2689 0.9800
-4.8553 -0.6474 -1.2683 0.9800
-4.8271 -0.8209 -1.2678 0.9800
-4.7028 -1.3328 -1.2656 0.9800
-4.6484 -1.4997 -1.2646 0.9800
-4.5877 -1.6642 -1.2636 0.9800
-0.6705 -3.6494 -1.0504 0.9847
-0.5379 -3.6630 -1.0481 0.9847
-0.4051 -3.6718 -1.0458 0.9848
-0.2725 -3.6758 -1.0435 0.9848
0.3000 -2.1065 -0.6024 0.9912
0.6403 -3.5727 -1.0275 0.9850
0.8912 -3.5026 -1.0231 0.9851
1.2548 -3.3655 -1.0168 0.9852
1.3720 -3.3116 -1.0148 0.9852
1.4870 -3.2537 -1.0127 0.9852
1.7100 -3.1266 -1.0089 0.9853
1.8178 -3.0575 -1.0070 0.9853
1.5034 -2.1593 -0.7449 0.9891
1.5591 -2.0762 -0.7350 0.9893
2.4046 -2.5718 -0.9967 0.9855
2.6555 -2.2883 -0.9924 0.9855
2.7322 -2.1885 -0.9910 0.9856
2.8054 -2.0864 -0.9897 0.9856
2.8749 -1.9819 -0.9885 0.9856
3.0029 -1.7665 -0.9863 0.9856
3.5052 -1.7363 -1.1074 0.9839
3.6077 -1.6285 -1.1205 0.9837
3.6608 -1.4967 -1.1196 0.9837
1.5883 -0.5198 -0.4731 0.9931
1.5935 -0.4589 -0.4695 0.9931
1.6020 -0.3391 -0.4636 0.9932
2.1292 -0.2931 -0.6084 0.9911
3.9377 0.0269 -1.1148 0.9838
3.9135 0.4502 -1.1152 0.9838
3.8959 0.5906 -1.1155 0.9838
3.8735 0.7303 -1.1159 0.9837
3.8465 0.8693 -1.1164 0.9837
3.7782 1.1442 -1.1176 0.9837
2.1585 1.1062 -0.6866 0.9900
1.9785 1.1054 -0.6416 0.9906
1.6824 1.1054 -0.5699 0.9917
1.5050 1.1515 -0.5365 0.9922
1.4881 1.3182 -0.5628 0.9918
2.8985 2.7594 -1.1329 0.9835
2.4893 3.1657 -1.1401 0.9834
2.3781 3.2585 -1.1420 0.9834
2.1457 3.4329 -1.1461 0.9833
1.7742 3.6643 -1.1525 0.9832
1.3782 3.8568 -1.1594 0.9831
-0.2169 4.1884 -1.1873 0.9827
-0.3679 4.1872 -1.1899 0.9827
-0.5191 4.1805 -1.1926 0.9826
-0.6704 4.1684 -1.1952 0.9826
-1.1220 4.0990 -1.2031 0.9825
-1.4192 4.0253 -1.2083 0.9824
-1.7116 3.9296 -1.2134 0.9823
-2.2747 3.6737 -1.2232 0.9822
-2.4097 3.5966 -1.2256 0.9822
-2.5420 3.5144 -1.2279 0.9821
-2.6715 3.4271 -1.2301 0.9821
-1.1093 1.3223 -0.4886 0.9929
-1.1730 1.2101 -0.4771 0.9930
-1.2373 1.1054 -0.4697 0.9931
-1.3305 1.1054 -0.4897 0.9928
-1.4904 1.1504 -0.5330 0.9922
-1.4729 1.0548 -0.5129 0.9925
-3.7627 2.3050 -1.2492 0.9818
-3.9274 2.0338 -1.2521 0.9818
-4.0021 1.8935 -1.2534 0.9818
-4.2463 1.3056 -1.2576 0.9817
-4.3343 0.9988 -1.2592 0.9817
-4.3695 0.8430 -1.2598 0.9817
-4.4390 0.3687 -1.2610 0.9817
-4.4550 0.0493 -1.2613 0.9816
-4.4466 -0.2704 -1.2611 0.9817
-4.4332 -0.4298 -1.2609 0.9817
-4.4137 -0.5885 -1.2605 0.9817
-4.3567 -0.9030 -1.2596 0.9817
-4.3192 -1.0582 -1.2589 0.9817
-4.2758 -1.2118 -1.2581 0.9817
-4.2267 -1.3636 -1.2573 0.9817
-4.1719 -1.5133 -1.2563 0.9817
-4.1114 -1.6607 -1.2553 0.9817
-3.9016 -1.7414 -1.2095 0.9824
-0.4947 -3.3690 -1.0473 0.9859
-0.3727 -3.3777 -1.0452 0.9859
-0.2507 -3.3820 -1.0431 0.9859
-0.1289 -3.3819 -1.0410 0.9859
0.1137 -3.3687 -1.0367 0.9860
0.2176 -2.0544 -0.6354 0.9914
0.2995 -2.1033 -0.6534 0.9911
0.5899 -3.2911 -1.0284 0.9861
0.9348 -3.1899 -1.0224 0.9862
1.0467 -3.1482 -1.0204 0.9862
1.1568 -3.1028 -1.0185 0.9862
1.6772 -2.8210 -1.0094 0.9864
1.7744 -2.7543 -1.0077 0.9864
1.5594 -2.0766 -0.7988 0.9892
1.6783 -2.0754 -0.8210 0.9889
2.1368 -2.4565 -1.0014 0.9865
2.2204 -2.3747 -0.9999 0.9865
2.3009 -2.2903 -0.9985 0.9865
2.3784 -2.2032 -0.9972 0.9865
2.4528 -2.1136 -0.9959 0.9865
2.5239 -2.0217 -0.9946 0.9866
2.5918 -1.9275 -0.9935 0.9866
2.6563 -1.8311 -0.9923 0.9866
2.7564 -1.7576 -1.0055 0.9864
3.2070 -1.7347 -1.1215 0.9849
3.3839 -1.3835 -1.1244 0.9848
1.5480 -0.5067 -0.5010 0.9932
1.5582 -0.3888 -0.4940 0.9933
1.5622 -0.3307 -0.4912 0.9933
1.8031 -0.3145 -0.5630 0.9924
2.1515 -0.2962 -0.6680 0.9910
3.6237 -0.3668 -1.1203 0.9849
3.6339 -0.2365 -1.1201 0.9849
3.6305 0.2861 -1.1201 0.9849
3.6186 0.4163 -1.1203 0.9849
3.5815 0.6752 -1.1210 0.9849
3.4123 1.3073 -1.1239 0.9848
3.3656 1.4300 -1.1248 0.9848
2.1825 1.1185 -0.7543 0.9898
1.8217 1.1054 -0.6554 0.9911
1.4726 1.2130 -0.5868 0.9920
1.4633 1.2963 -0.6013 0.9919
2.6768 2.5484 -1.1368 0.9847
2.3976 2.8335 -1.1417 0.9846
2.1949 3.0075 -1.1452 0.9845
1.9799 3.1676 -1.1489 0.9845
1.5168 3.4424 -1.1570 0.9844
1.1443 3.6057 -1.1635 0.9843
1.0161 3.6514 -1.1658 0.9843
0.7544 3.7295 -1.1703 0.9842
0.6213 3.7616 -1.1727 0.9842
0.4868 3.7890 -1.1750 0.9841
0.2146 3.8296 -1.1798 0.9841
-0.4775 3.8454 -1.1918 0.9839
-0.6165 3.8335 -1.1943 0.9839
-0.8936 3.7947 -1.1991 0.9838
-1.3041 3.6987 -1.2063 0.9837
-1.7040 3.5575 -1.2132 0.9836
-1.8340 3.5006 -1.2155 0.9836
-1.9621 3.4388 -1.2178 0.9836
-2.0880 3.3722 -1.2200 0.9835
-2.2116 3.3009 -1.2221 0.9835
-1.0645 1.2689 -0.5094 0.9931
-1.0832 1.2009 -0.4974 0.9933
-1.1513 1.1054 -0.4909 0.9933
-1.2373 1.1054 -0.5103 0.9931
-1.3305 1.1054 -0.5320 0.9928
-3.4479 2.1122 -1.2437 0.9832
-3.5254 1.9892 -1.2450 0.9832
-3.6662 1.7346 -1.2475 0.9832
-3.7294 1.6033 -1.2486 0.9832
-3.9316 1.0560 -1.2521 0.9831
-3.9690 0.9146 -1.2528 0.9831
-4.0277 0.6280 -1.2538 0.9831
-4.0645 0.3376 -1.2545 0.9831
-4.0414 -0.5389 -1.2540 0.9831
-3.9894 -0.8268 -1.2531 0.9831
-3.9553 -0.9691 -1.2525 0.9831
-3.8710 -1.2489 -1.2511 0.9831
-3.8210 -1.3861 -1.2502 0.9831
-3.7058 -1.6540 -1.2482 0.9832
-0.5701 -3.1028 -1.0487 0.9868
-0.3447 -3.1240 -1.0447 0.9868
-0.2319 -3.1284 -1.0428 0.9869
0.1052 -3.1175 -1.0369 0.9869
0.2176 -2.0540 -0.6866 0.9913
0.5462 -3.0476 -1.0292 0.9870
0.6541 -3.0205 -1.0273 0.9871
0.8660 -2.9551 -1.0236 0.9871
0.9698 -2.9169 -1.0218 0.9871
1.0720 -2.8752 -1.0200 0.9871
1.1725 -2.8300 -1.0182 0.9872
1.2711 -2.7814 -1.0165 0.9872
1.5552 -2.6158 -1.0116 0.9873
1.6455 -2.5543 -1.0100 0.9873
1.5597 -2.0769 -0.8634 0.9891
1.6778 -2.0747 -0.8869 0.9888
1.9825 -2.2791 -1.0041 0.9873
2.0603 -2.2035 -1.0027 0.9874
2.1352 -2.1253 -1.0014 0.9874
2.2074 -2.0447 -1.0002 0.9874
2.2766 -1.9618 -0.9990 0.9874
2.3428 -1.8766 -0.9978 0.9874
2.5447 -1.7542 -1.0274 0.9871
2.7353 -1.7442 -1.0784 0.9864
3.0969 -1.3980 -1.1295 0.9858
3.1429 -1.2850 -1.1286 0.9858
1.5068 -0.5538 -0.5336 0.9933
2.1746 -0.2993 -0.7297 0.9908
3.3760 -0.2197 -1.1246 0.9858
3.3465 0.5073 -1.1251 0.9858
3.2761 0.8651 -1.1263 0.9858
3.2445 0.9826 -1.1269 0.9858
3.1694 1.2143 -1.1282 0.9858
3.1258 1.3281 -1.1289 0.9858
1.9785 1.1054 -0.7533 0.9905
1.6824 1.1054 -0.6691 0.9916
1.4391 1.2747 -0.6390 0.9919
2.4008 2.4558 -1.1416 0.9856
2.3142 2.5438 -1.1431 0.9856
2.2244 2.6288 -1.1447 0.9856
1.8360 2.9374 -1.1515 0.9855
1.7321 3.0062 -1.1533 0.9855
1.6257 3.0713 -1.1551 0.9855
1.5169 3.1329 -1.1570 0.9854
1.4058 3.1906 -1.1590 0.9854
1.1773 3.2946 -1.1630 0.9854
0.8207 3.4203 -1.1692 0.9853
0.6986 3.4538 -1.1713 0.9853
0.1986 3.5444 -1.1800 0.9851
-0.3131 3.5631 -1.1890 0.9850
-0.4416 3.5563 -1.1912 0.9850
-0.5701 3.5448 -1.1935 0.9850
-0.6983 3.5287 -1.1957 0.9850
-0.8260 3.5079 -1.1979 0.9849
-0.9532 3.4824 -1.2001 0.9849
-1.0795 3.4523 -1.2024 0.9849
-1.2050 3.4175 -1.2045 0.9848
-1.3292 3.3781 -1.2067 0.9848
-1.6936 3.2326 -1.2131 0.9847
-1.8116 3.1751 -1.2151 0.9847
-1.9276 3.1132 -1.2172 0.9847
-2.1530 2.9764 -1.2211 0.9846
-1.0291 1.2267 -0.5322 0.9933
-1.1513 1.1054 -0.5305 0.9933
-1.2373 1.1054 -0.5515 0.9930
-1.3305 1.1054 -0.5750 0.9927
-1.4321 1.1054 -0.6013 0.9924
-1.5933 1.1409 -0.6514 0.9918
-1.5721 1.0425 -0.6270 0.9921
-3.3163 1.7173 -1.2414 0.9844
-3.4902 1.3542 -1.2444 0.9843
-3.5390 1.2288 -1.2453 0.9843
-3.6223 0.9729 -1.2467 0.9843
-3.6566 0.8426 -1.2473 0.9843
-3.6860 0.7111 -1.2478 0.9843
-3.7104 0.5786 -1.2483 0.9843
-3.7298 0.4451 -1.2486 0.9843
-3.7441 0.3110 -1.2489 0.9843
-3.7534 0.1764 -1.2490 0.9843
-3.7565 -0.0933 -1.2491 0.9843
-3.7017 -0.6295 -1.2481 0.9843
-3.6753 -0.7617 -1.2477 0.9843
-3.6440 -0.8928 -1.2471 0.9843
-1.4829 -0.5379 -0.5244 0.9934
-3.4703 -1.4017 -1.2441 0.9843
-0.5295 -2.8822 -1.0479 0.9876
-0.4250 -2.8943 -1.0461 0.9876
-0.1108 -2.9079 -1.0406 0.9877
0.0978 -2.8982 -1.0370 0.9878
0.1448 -2.0756 -0.7440 0.9912
0.2175 -2.0536 -0.7385 0.9913
0.2985 -2.0967 -0.7573 0.9910
0.6084 -2.8098 -1.0281 0.9879
0.7077 -2.7814 -1.0264 0.9879
0.8058 -2.7496 -1.0246 0.9879
0.9025 -2.7145 -1.0230 0.9879
1.1833 -2.5892 -1.0180 0.9880
1.3619 -2.4900 -1.0149 0.9880
1.5599 -2.0773 -0.9290 0.9890
1.8471 -2.1235 -1.0065 0.9881
1.9198 -2.0532 -1.0052 0.9881
1.9898 -1.9806 -1.0040 0.9881
2.0665 -1.9143 -1.0073 0.9881
2.1219 -1.8285 -1.0017 0.9882
2.1974 -1.7601 -1.0068 0.9881
2.3542 -1.7508 -1.0492 0.9876
2.7374 -1.6103 -1.1357 0.9866
1.4859 -0.5461 -0.5661 0.9933
1.4896 -0.4875 -0.5605 0.9934
1.4955 -0.3731 -0.5512 0.9935
1.8031 -0.3145 -0.6545 0.9923
2.1827 -0.3004 -0.7879 0.9907
3.1491 -0.2049 -1.1285 0.9867
3.1542 -0.0917 -1.1284 0.9867
3.1462 0.2479 -1.1286 0.9867
3.0556 0.8069 -1.1302 0.9867
2.9557 1.1324 -1.1319 0.9866
2.9150 1.2386 -1.1326 0.9866
2.8706 1.3433 -1.1334 0.9866
1.9785 1.1054 -0.8105 0.9904
1.8217 1.1054 -0.7620 0.9910
1.6824 1.1054 -0.7199 0.9915
1.5575 1.1054 -0.6830 0.9919
1.4275 1.2645 -0.6819 0.9919
2.3151 2.2041 -1.1431 0.9865
2.2372 2.2885 -1.1445 0.9865
2.1562 2.3702 -1.1459 0.9865
2.0724 2.4492 -1.1473 0.9865
1.9858 2.5254 -1.1488 0.9864
1.8044 2.6687 -1.1520 0.9864
1.6130 2.7993 -1.1554 0.9864
1.5137 2.8597 -1.1571 0.9863
1.3087 2.9701 -1.1607 0.9863
1.2031 3.0200 -1.1625 0.9863
1.0957 3.0661 -1.1644 0.9863
0.9865 3.1086 -1.1663 0.9862
0.8758 3.1472 -1.1682 0.9862
0.3023 3.2809 -1.1782 0.9861
0.1846 3.2953 -1.1803 0.9861
0.0664 3.3056 -1.1823 0.9861
-0.0524 3.3117 -1.1844 0.9860
-0.6486 3.2776 -1.1948 0.9859
-0.7671 3.2579 -1.1969 0.9859
-0.8851 3.2338 -1.1990 0.9859
-1.6808 2.9458 -1.2128 0.9857
-1.7882 2.8880 -1.2147 0.9857
-0.9954 1.1866 -0.5539 0.9934
-1.2373 1.1054 -0.5933 0.9930
-1.4321 1.1054 -0.6469 0.9923
-1.5436 1.1054 -0.6790 0.9920
-1.6116 1.0687 -0.6915 0.9918
-2.9446 1.8039 -1.2349 0.9854
-3.0103 1.6986 -1.2361 0.9854
-3.0720 1.5908 -1.2371 0.9854
-3.3182 1.0203 -1.2414 0.9854
-3.4132 0.6585 -1.2431 0.9853
-3.4357 0.5357 -1.2435 0.9853
-3.4536 0.4121 -1.2438 0.9853
-3.4668 0.2880 -1.2440 0.9853
-3.4623 -0.3357 -1.2439 0.9853
-1.5001 -0.2551 -0.5442 0.9936
-1.3127 -0.3216 -0.4833 0.9943
-1.2829 -0.3636 -0.4768 0.9944
-1.2281 -0.4455 -0.4672 0.9945
-1.2166 -0.4914 -0.4692 0.9944
-1.2040 -0.5374 -0.4715 0.9944
-0.4939 -2.6880 -1.0473 0.9884
-0.2010 -2.7122 -1.0422 0.9884
-0.0059 -2.7107 -1.0388 0.9885
0.0913 -2.7048 -1.0371 0.9885
0.1448 -2.0759 -0.7975 0.9911
0.2175 -2.0533 -0.7912 0.9912
0.4744 -2.6467 -1.0304 0.9885
0.6609 -2.5976 -1.0272 0.9886
0.7526 -2.5682 -1.0256 0.9886
0.8430 -2.5356 -1.0240 0.9886
0.9321 -2.4999 -1.0224 0.9886
1.0197 -2.4612 -1.0209 0.9887
1.1057 -2.4194 -1.0194 0.9887
1.3537 -2.2768 -1.0151 0.9887
1.5095 -2.1680 -1.0124 0.9887
1.7273 -1.9857 -1.0086 0.9888
1.7953 -1.9201 -1.0074 0.9888
1.9242 -1.7824 -1.0051 0.9888
2.0370 -1.7553 -1.0305 0.9885
2.1814 -1.7473 -1.0711 0.9881
2.3376 -1.7384 -1.1164 0.9876
2.5614 -1.5067 -1.1388 0.9874
2.7430 -1.1215 -1.1356 0.9874
1.4691 -0.4808 -0.5924 0.9934
1.4753 -0.3681 -0.5827 0.9935
1.4858 -0.3145 -0.5820 0.9935
1.8031 -0.3145 -0.7014 0.9922
2.1830 -0.3005 -0.8444 0.9906
2.9394 -0.2976 -1.1322 0.9874
2.9478 -0.1918 -1.1321 0.9874
2.9526 -0.0859 -1.1320 0.9874
2.9537 0.0202 -1.1319 0.9874
2.9451 0.2321 -1.1321 0.9874
2.9219 0.4429 -1.1325 0.9874
2.9049 0.5477 -1.1328 0.9874
2.8600 0.7552 -1.1336 0.9874
2.8323 0.8577 -1.1341 0.9874
2.8010 0.9593 -1.1346 0.9874
2.6414 1.3537 -1.1374 0.9874
1.9785 1.1054 -0.8685 0.9903
1.6824 1.1054 -0.7714 0.9914
1.4447 1.1054 -0.6971 0.9922
1.4230 1.1721 -0.7065 0.9921
1.4194 1.2573 -0.7266 0.9919
1.4153 1.3474 -0.7489 0.9917
2.0923 2.1402 -1.1470 0.9873
1.6868 2.4947 -1.1541 0.9872
1.4147 2.6726 -1.1588 0.9871
1.3197 2.7255 -1.1605 0.9871
1.1240 2.8215 -1.1639 0.9871
0.9215 2.9036 -1.1674 0.9870
0.7130 2.9715 -1.1711 0.9870
0.6068 2.9999 -1.1729 0.9870
0.4996 3.0246 -1.1748 0.9870
0.1723 3.0757 -1.1805 0.9869
-0.0489 3.0902 -1.1844 0.9868
-0.2714 3.0888 -1.1882 0.9868
-0.3827 3.0821 -1.1902 0.9868
-0.4939 3.0714 -1.1921 0.9868
-1.0427 2.9574 -1.2017 0.9867
-1.1500 2.9226 -1.2036 0.9866
-1.5659 2.7444 -1.2108 0.9866
-1.7637 2.6324 -1.2143 0.9865
-0.9537 1.2235 -0.5945 0.9934
-1.3305 1.1054 -0.6629 0.9926
-1.4321 1.1054 -0.6933 0.9923
-1.6192 1.0737 -0.7445 0.9917
-2.8008 1.5804 -1.2324 0.9863
-2.9115 1.3775 -1.2343 0.9863
-3.0069 1.1666 -1.2360 0.9863
-3.0486 1.0586 -1.2367 0.9863
-3.0863 0.9490 -1.2374 0.9863
-3.1199 0.8380 -1.2380 0.9863
-3.2118 0.3833 -1.2396 0.9862
-3.2320 0.1519 -1.2399 0.9862
-3.2355 0.0358 -1.2400 0.9862
-3.2295 -0.1964 -1.2399 0.9862
-3.2060 -0.4275 -1.2395 0.9862
-1.5566 -0.3226 -0.6092 0.9932
-1.2837 -0.3145 -0.5065 0.9944
-1.1812 -0.3811 -0.4756 0.9947
-0.4622 -2.5155 -1.0468 0.9890
-0.1882 -2.5390 -1.0420 0.9891
0.0855 -2.5328 -1.0372 0.9891
0.1448 -2.0763 -0.8518 0.9910
0.2175 -2.0528 -0.8449 0.9911
0.4444 -2.4794 -1.0309 0.9892
0.7900 -2.3763 -1.0249 0.9892
0.8736 -2.3431 -1.0235 0.9893
0.9558 -2.3070 -1.0220 0.9893
1.3434 -2.0854 -1.0153 0.9893
1.4157 -2.0333 -1.0140 0.9893
1.5542 -1.9219 -1.0116 0.9894
1.7663 -1.7581 -1.0200 0.9893
1.8906 -1.7513 -1.0547 0.9889
2.2436 -1.6686 -1.1443 0.9880
2.3001 -1.5856 -1.1434 0.9880
2.3536 -1.5008 -1.1424 0.9880
2.4041 -1.4142 -1.1415 0.9880
2.4515 -1.3260 -1.1407 0.9880
2.5370 -1.1452 -1.1392 0.9880
1.4488 -0.4742 -0.6239 0.9934
1.4523 -0.4182 -0.6185 0.9935
1.4553 -0.3631 -0.6139 0.9935
2.1833 -0.3005 -0.9020 0.9905
2.7723 -0.0806 -1.1351 0.9881
2.7734 0.0189 -1.1351 0.9881
2.7710 0.1185 -1.1351 0.9881
2.7652 0.2179 -1.1352 0.9881
2.7560 0.3171 -1.1354 0.9881
2.7274 0.5142 -1.1359 0.9881
2.5969 0.9949 -1.1382 0.9881
2.5609 1.0881 -1.1388 0.9880
1.8217 1.1054 -0.8721 0.9908
1.5575 1.1054 -0.7817 0.9918
1.4151 1.1656 -0.7503 0.9921
1.4112 1.2501 -0.7716 0.9919
1.4097 1.3421 -0.7966 0.9916
1.9629 2.0079 -1.1492 0.9879
1.8916 2.0793 -1.1505 0.9879
1.6629 2.2785 -1.1545 0.9879
1.5819 2.3396 -1.1559 0.9879
1.4136 2.4533 -1.1588 0.9878
1.3264 2.5058 -1.1604 0.9878
1.2372 2.5552 -1.1619 0.9878
1.1463 2.6015 -1.1635 0.9878
0.8636 2.7211 -1.1684 0.9877
0.7665 2.7544 -1.1701 0.9877
0.2643 2.8683 -1.1789 0.9876
0.1614 2.8803 -1.1807 0.9876
0.0580 2.8887 -1.1825 0.9876
-0.0458 2.8933 -1.1843 0.9876
-0.3582 2.8848 -1.1898 0.9875
-0.4623 2.8745 -1.1916 0.9875
-0.6693 2.8425 -1.1952 0.9875
-0.7721 2.8209 -1.1970 0.9874
-0.9754 2.7664 -1.2005 0.9874
-1.0756 2.7336 -1.2023 0.9874
-1.2726 2.6569 -1.2057 0.9873
-0.9203 1.2723 -0.6427 0.9932
-0.9345 1.1989 -0.6221 0.9935
-0.9971 1.1054 -0.6093 0.9936
-1.0715 1.1054 -0.6301 0.9934
-1.2373 1.1054 -0.6790 0.9929
-1.5436 1.1054 -0.7770 0.9918
-2.5589 1.5676 -1.2282 0.9871
-2.6156 1.4759 -1.2292 0.9871
-2.7650 1.1887 -1.2318 0.9871
-2.8464 0.9884 -1.2332 0.9871
-2.8815 0.8860 -1.2338 0.9871
-2.9127 0.7823 -1.2343 0.9870
-2.9829 0.4651 -1.2356 0.9870
-2.9983 0.3578 -1.2358 0.9870
-3.0097 0.2500 -1.2360 0.9870
-3.0171 0.1418 -1.2362 0.9870
-3.0203 0.0334 -1.2362 0.9870
-3.0058 -0.2914 -1.2360 0.9870
-2.9929 -0.3991 -1.2357 0.9870
-1.5175 -0.3145 -0.6343 0.9933
-1.2837 -0.3145 -0.5409 0.9943
-1.1185 -0.4057 -0.4870 0.9949
-1.0957 -0.4890 -0.4911 0.9948
-0.4338 -2.3612 -1.0463 0.9896
-0.3483 -2.3719 -1.0448 0.9896
-0.2625 -2.3794 -1.0433 0.9896
-0.1767 -2.3839 -1.0418 0.9896
-0.0909 -2.3853 -1.0403 0.9896
0.1448 -2.0767 -0.9073 0.9910
0.2174 -2.0524 -0.8995 0.9910
0.2971 -2.0864 -0.9185 0.9908
0.5820 -2.2872 -1.0285 0.9898
0.6628 -2.2617 -1.0271 0.9898
0.7425 -2.2334 -1.0257 0.9898
0.8211 -2.2024 -1.0244 0.9898
0.9745 -2.1322 -1.0217 0.9898
1.1936 -2.0075 -1.0179 0.9899
1.2633 -1.9611 -1.0167 0.9899
1.3344 -1.9166 -1.0178 0.9899
1.4618 -1.8077 -1.0132 0.9899
1.7553 -1.7472 -1.0794 0.9893
1.8784 -1.7400 -1.1159 0.9889
1.9966 -1.7205 -1.1487 0.9886
2.1112 -1.5701 -1.1467 0.9886
2.1645 -1.4921 -1.1457 0.9886
2.2149 -1.4123 -1.1448 0.9886
2.2625 -1.3310 -1.1440 0.9886
2.3491 -1.1637 -1.1425 0.9886
2.3879 -1.0779 -1.1418 0.9886
1.4306 -0.5258 -0.6643 0.9934
1.4320 -0.4687 -0.6567 0.9934
1.4332 -0.4128 -0.6500 0.9935
1.4858 -0.3145 -0.6619 0.9934
2.5876 -0.3562 -1.1383 0.9887
2.6110 0.0178 -1.1379 0.9887
2.5675 0.4841 -1.1387 0.9887
2.5492 0.5761 -1.1390 0.9887
2.3335 1.1959 -1.1428 0.9886
1.9785 1.1054 -0.9877 0.9902
1.8217 1.1054 -0.9286 0.9907
1.6824 1.1054 -0.8773 0.9913
1.4447 1.1054 -0.7928 0.9921
1.4157 1.2541 -0.8243 0.9918
1.7099 2.0208 -1.1537 0.9885
1.5639 2.1430 -1.1562 0.9885
1.4877 2.2003 -1.1575 0.9885
1.4094 2.2549 -1.1589 0.9885
1.3292 2.3068 -1.1603 0.9885
1.1632 2.4022 -1.1632 0.9884
1.0775 2.4456 -1.1647 0.9884
0.5342 2.6407 -1.1742 0.9883
0.4397 2.6619 -1.1758 0.9883
-0.2385 2.7147 -1.1877 0.9882
-0.3363 2.7083 -1.1894 0.9882
-0.5313 2.6848 -1.1928 0.9881
-0.6282 2.6678 -1.1945 0.9881
-0.7246 2.6473 -1.1962 0.9881
-1.1938 2.4923 -1.2043 0.9880
-1.3730 2.4064 -1.2075 0.9880
-1.4604 2.3586 -1.2090 0.9880
-0.8874 1.3245 -0.6948 0.9931
-0.9012 1.2459 -0.6701 0.9933
-0.9971 1.1054 -0.6488 0.9935
-1.0715 1.1054 -0.6709 0.9933
-1.1513 1.1054 -0.6956 0.9931
-1.2373 1.1054 -0.7231 0.9928
-1.3305 1.1054 -0.7539 0.9925
-2.3975 1.4687 -1.2254 0.9878
-2.5004 1.2948 -1.2272 0.9878
-2.5469 1.2050 -1.2280 0.9878
-2.5901 1.1135 -1.2287 0.9878
-2.6299 1.0204 -1.2294 0.9878
-2.6662 0.9258 -1.2300 0.9878
-2.8082 0.3351 -1.2325 0.9877
-2.8188 0.2341 -1.2327 0.9877
-2.8287 0.0313 -1.2329 0.9877
-1.0845 -0.3499 -0.4966 0.9950
-1.0789 -0.3914 -0.5002 0.9950
-1.0727 -0.4333 -0.5042 0.9950
-1.0658 -0.4757 -0.5086 0.9949
-0.3278 -2.2324 -1.0444 0.9901
-0.2471 -2.2397 -1.0430 0.9901
-0.0049 -2.2442 -1.0388 0.9902
0.0756 -2.2399 -1.0374 0.9902
0.1449 -2.0771 -0.9638 0.9909
0.2174 -2.0520 -0.9552 0.9909
0.2968 -2.0846 -0.9746 0.9908
0.3933 -2.1942 -1.0318 0.9902
0.4712 -2.1758 -1.0305 0.9902
0.5482 -2.1547 -1.0291 0.9902
0.6244 -2.1308 -1.0278 0.9903
0.6996 -2.1043 -1.0265 0.9903
0.7737 -2.0753 -1.0252 0.9903
0.8467 -2.0436 -1.0239 0.9903
0.9887 -1.9728 -1.0214 0.9903
1.1251 -1.8924 -1.0191 0.9903
1.1909 -1.8487 -1.0179 0.9904
1.2551 -1.8027 -1.0168 0.9904
1.3233 -1.7621 -1.0200 0.9903
1.8831 -1.6227 -1.1506 0.9891
1.9385 -1.5528 -1.1497 0.9891
2.0417 -1.4075 -1.1479 0.9891
2.0894 -1.3323 -1.1470 0.9891
2.1344 -1.2556 -1.1463 0.9891
2.1767 -1.1774 -1.1455 0.9892
2.2529 -1.0170 -1.1442 0.9892
1.4238 -0.5233 -0.7022 0.9933
1.4252 -0.4665 -0.6942 0.9934
1.4265 -0.4108 -0.6871 0.9935
1.4276 -0.3562 -0.6811 0.9935
1.4858 -0.3145 -0.7030 0.9933
2.4417 -0.3361 -1.1409 0.9892
2.4589 -0.1600 -1.1406 0.9892
2.4054 0.5436 -1.1415 0.9892
2.3618 0.7153 -1.1423 0.9892
2.3356 0.7999 -1.1427 0.9892
2.2015 1.1283 -1.1451 0.9892
1.8217 1.1054 -0.9863 0.9907
1.6824 1.1054 -0.9318 0.9912
1.4219 1.1712 -0.8527 0.9919
1.4286 1.2654 -0.8834 0.9916
1.7414 1.7814 -1.1531 0.9891
1.5444 1.9641 -1.1565 0.9890
1.4745 2.0204 -1.1578 0.9890
1.4025 2.0743 -1.1590 0.9890
1.3286 2.1256 -1.1603 0.9890
1.2529 2.1744 -1.1616 0.9890
1.1754 2.2206 -1.1630 0.9890
1.0962 2.2640 -1.1644 0.9890
1.0155 2.3047 -1.1658 0.9890
0.9333 2.3426 -1.1672 0.9889
0.8496 2.3775 -1.1687 0.9889
0.6786 2.4386 -1.1717 0.9889
0.2338 2.5372 -1.1794 0.9888
0.1427 2.5474 -1.1810 0.9888
0.0513 2.5544 -1.1826 0.9888
-0.0405 2.5580 -1.1842 0.9888
-0.2245 2.5554 -1.1874 0.9888
-0.3166 2.5492 -1.1890 0.9887
-0.4084 2.5396 -1.1906 0.9887
-0.6818 2.4909 -1.1954 0.9887
-0.7718 2.4681 -1.1970 0.9887
-0.8610 2.4419 -1.1985 0.9887
-0.9493 2.4126 -1.2001 0.9886
-1.3733 2.2179 -1.2075 0.9886
-0.8974 1.1512 -0.6757 0.9936
-0.9273 1.1054 -0.6679 0.9937
-0.9971 1.1054 -0.6891 0.9935
-1.0715 1.1054 -0.7126 0.9932
-1.5436 1.1054 -0.8788 0.9917
-2.2527 1.3800 -1.2228 0.9884
-2.4705 0.9585 -1.2266 0.9884
-2.5626 0.6883 -1.2282 0.9884
-2.5866 0.5961 -1.2287 0.9884
-2.6241 0.4092 -1.2293 0.9884
-2.6376 0.3148 -1.2295 0.9884
-2.6568 0.0294 -1.2299 0.9884
-2.6561 -0.0660 -1.2299 0.9884
-2.6328 -0.3510 -1.2295 0.9884
-1.5175 -0.3145 -0.7174 0.9932
-1.0516 -0.3814 -0.5178 0.9951
-1.0453 -0.4222 -0.5218 0.9950
-0.3851 -2.0962 -1.0454 0.9905
-0.3092 -2.1060 -1.0441 0.9906
-0.2331 -2.1130 -1.0428 0.9906
-0.0807 -2.1189 -1.0401 0.9906
-0.0046 -2.1177 -1.0388 0.9906
0.0713 -2.1138 -1.0375 0.9906
0.1449 -2.0775 -1.0215 0.9908
0.2173 -2.0516 -1.0120 0.9909
0.2970 -2.0859 -1.0335 0.9907
0.5896 -2.0120 -1.0284 0.9907
0.7307 -1.9598 -1.0260 0.9907
0.8674 -1.8979 -1.0236 0.9907
0.9339 -1.8634 -1.0224 0.9908
0.9991 -1.8266 -1.0213 0.9908
1.0628 -1.7876 -1.0202 0.9908
1.3139 -1.7497 -1.0733 0.9903
1.4107 -1.7444 -1.1004 0.9901
1.6087 -1.7206 -1.1554 0.9896
1.8322 -1.4676 -1.1515 0.9896
1.8823 -1.3999 -1.1507 0.9896
1.9299 -1.3304 -1.1498 0.9896
2.0578 -1.1131 -1.1476 0.9896
2.0952 -1.0379 -1.1469 0.9896
2.1300 -0.9615 -1.1463 0.9896
2.1621 -0.8840 -1.1458 0.9896
1.4169 -0.5208 -0.7405 0.9933
1.4184 -0.4642 -0.7321 0.9934
1.4197 -0.4089 -0.7247 0.9934
2.3184 -0.2347 -1.1430 0.9897
2.3251 -0.1513 -1.1429 0.9897
2.3278 0.0995 -1.1429 0.9897
2.3151 0.2663 -1.1431 0.9897
2.2909 0.4319 -1.1435 0.9897
2.2745 0.5140 -1.1438 0.9897
2.2552 0.5955 -1.1441 0.9897
2.2331 0.6763 -1.1445 0.9897
2.1806 0.8354 -1.1454 0.9897
2.1502 0.9136 -1.1460 0.9896
2.1171 0.9907 -1.1466 0.9896
1.8217 1.1054 -1.0452 0.9906
1.6824 1.1054 -0.9874 0.9911
1.5575 1.1054 -0.9369 0.9915
1.4447 1.1054 -0.8923 0.9919
1.4552 1.2890 -0.9536 0.9914
1.7036 1.6218 -1.1538 0.9896
1.5856 1.7430 -1.1558 0.9896
1.3931 1.9089 -1.1592 0.9895
1.2552 2.0081 -1.1616 0.9895
1.1835 2.0540 -1.1628 0.9895
1.0354 2.1384 -1.1654 0.9895
0.8813 2.2123 -1.1681 0.9894
0.8023 2.2451 -1.1695 0.9894
0.7221 2.2752 -1.1709 0.9894
0.3909 2.3668 -1.1767 0.9894
-0.1250 2.4140 -1.1857 0.9893
-0.2119 2.4110 -1.1872 0.9893
-0.2986 2.4049 -1.1887 0.9893
-0.4716 2.3833 -1.1917 0.9892
-0.5576 2.3678 -1.1932 0.9892
-0.6430 2.3492 -1.1947 0.9892
-0.8119 2.3027 -1.1977 0.9892
-0.9774 2.2439 -1.2006 0.9892
-1.2944 2.0905 -1.2061 0.9891
-0.8715 1.3007 -0.7680 0.9930
-0.8786 1.2146 -0.7353 0.9933
-0.8849 1.1353 -0.7061 0.9936
-0.9273 1.1054 -0.7077 0.9936
-0.9971 1.1054 -0.7302 0.9934
-1.0715 1.1054 -0.7551 0.9932
-1.2373 1.1054 -0.8138 0.9926
-1.4321 1.1054 -0.8874 0.9920
-2.0723 1.3741 -1.2197 0.9890
-2.1218 1.2998 -1.2205 0.9890
-2.1685 1.2236 -1.2214 0.9890
-2.2915 0.9851 -1.2235 0.9889
-2.3266 0.9027 -1.2241 0.9889
-2.4356 0.5613 -1.2260 0.9889
-2.4548 0.4736 -1.2264 0.9889
-2.4835 0.2964 -1.2269 0.9889
-2.5016 0.0277 -1.2272 0.9889
-2.5010 -0.0621 -1.2272 0.9889
-1.6286 -0.2770 -0.8103 0.9927
-1.2837 -0.3145 -0.6483 0.9941
-1.1097 -0.3145 -0.5658 0.9949
-1.0250 -0.3718 -0.5349 0.9952
-1.0187 -0.4115 -0.5389 0.9951
-1.0117 -0.4515 -0.5434 0.9951
-0.2204 -1.9975 -1.0426 0.9910
-0.1484 -2.0017 -1.0413 0.9910
0.0674 -1.9988 -1.0375 0.9910
0.2102 -1.9840 -1.0350 0.9910
0.2809 -1.9729 -1.0338 0.9911
0.4207 -1.9430 -1.0314 0.9911
0.4897 -1.9244 -1.0302 0.9911
0.5578 -1.9034 -1.0290 0.9911
0.6913 -1.8543 -1.0266 0.9911
0.7566 -1.8262 -1.0255 0.9911
0.9611 -1.7572 -1.0390 0.9910
1.0425 -1.7534 -1.0582 0.9908
1.4022 -1.7340 -1.1569 0.9900
1.4649 -1.6841 -1.1579 0.9900
1.5231 -1.6290 -1.1569 0.9900
1.6852 -1.4522 -1.1541 0.9900
1.7825 -1.3256 -1.1524 0.9900
1.8276 -1.2599 -1.1516 0.9900
1.8705 -1.1927 -1.1509 0.9901
1.9109 -1.1241 -1.1502 0.9901
1.9844 -0.9830 -1.1489 0.9901
1.4099 -0.5182 -0.7792 0.9933
1.4128 -0.4069 -0.7627 0.9934
1.4140 -0.3528 -0.7561 0.9935
2.1871 -0.3011 -1.1453 0.9901
2.1962 -0.2223 -1.1452 0.9901
2.2062 -0.0642 -1.1450 0.9901
2.2070 0.0151 -1.1450 0.9901
2.1931 0.2523 -1.1452 0.9901
2.1701 0.4091 -1.1456 0.9901
2.1545 0.4869 -1.1459 0.9901
2.1362 0.5641 -1.1462 0.9901
2.1153 0.6406 -1.1466 0.9901
2.0052 0.9383 -1.1485 0.9901
1.9712 1.0102 -1.1491 0.9901
1.8217 1.1054 -1.1054 0.9904
1.6824 1.1054 -1.0443 0.9910
1.5575 1.1054 -0.9908 0.9914
1.4513 1.1105 -0.9480 0.9918
1.6130 1.5356 -1.1554 0.9900
1.5581 1.5938 -1.1563 0.9900
1.5012 1.6502 -1.1573 0.9900
1.2542 1.8549 -1.1616 0.9900
1.1880 1.9006 -1.1628 0.9900
1.0507 1.9850 -1.1652 0.9899
0.9075 2.0597 -1.1677 0.9899
0.6831 2.1525 -1.1716 0.9899
0.5281 2.2011 -1.1743 0.9899
0.4493 2.2212 -1.1757 0.9898
0.1274 2.2735 -1.1813 0.9898
-0.1182 2.2822 -1.1856 0.9898
-0.2003 2.2793 -1.1870 0.9897
-0.2823 2.2734 -1.1884 0.9897
-0.4458 2.2526 -1.1913 0.9897
-0.6077 2.2201 -1.1941 0.9897
-0.9234 2.1200 -1.1996 0.9896
-1.1497 2.0151 -1.2036 0.9896
-1.2226 1.9746 -1.2048 0.9896
-0.8635 1.2888 -0.8048 0.9930
-0.9273 1.1054 -0.7485 0.9935
-0.9971 1.1054 -0.7723 0.9933
-1.0715 1.1054 -0.7986 0.9931
-1.1513 1.1054 -0.8280 0.9928
-2.0028 1.2269 -1.2185 0.9895
-2.0468 1.1549 -1.2192 0.9895
-2.1269 1.0063 -1.2206 0.9895
-2.1627 0.9298 -1.2213 0.9894
-2.2259 0.7729 -1.2224 0.9894
-2.2530 0.6928 -1.2228 0.9894
-2.2772 0.6116 -1.2233 0.9894
-2.3166 0.4469 -1.2239 0.9894
-2.3316 0.3636 -1.2242 0.9894
-2.3436 0.2797 -1.2244 0.9894
-2.3606 0.0261 -1.2247 0.9894
-2.3600 -0.0586 -1.2247 0.9894
-2.3494 -0.2278 -1.2245 0.9894
-2.3393 -0.3119 -1.2243 0.9894
-1.6358 -0.2782 -0.8608 0.9926
-1.5175 -0.3145 -0.8040 0.9930
-1.2837 -0.3145 -0.6857 0.9941
-1.1097 -0.3145 -0.5984 0.9948
-1.0049 -0.3242 -0.5478 0.9953
-0.9992 -0.3625 -0.5514 0.9952
-0.2087 -1.8916 -1.0423 0.9914
-0.1405 -1.8957 -1.0412 0.9914
-0.0041 -1.8966 -1.0388 0.9914
0.0639 -1.8934 -1.0376 0.9914
0.1991 -1.8796 -1.0352 0.9914
0.2661 -1.8691 -1.0341 0.9914
0.3327 -1.8563 -1.0329 0.9914
0.3987 -1.8411 -1.0317 0.9914
0.5286 -1.8038 -1.0295 0.9915
0.6574 -1.7632 -1.0306 0.9915
0.9558 -1.7476 -1.0910 0.9910
1.0367 -1.7436 -1.1110 0.9908
1.1205 -1.7393 -1.1332 0.9906
1.3321 -1.6472 -1.1603 0.9904
1.3891 -1.5969 -1.1593 0.9904
1.4977 -1.4907 -1.1574 0.9904
1.6907 -1.2574 -1.1540 0.9904
1.7336 -1.1951 -1.1532 0.9904
1.8127 -1.0663 -1.1519 0.9905
1.8488 -1.0000 -1.1512 0.9905
1.8825 -0.9325 -1.1506 0.9905
1.9139 -0.8640 -1.1501 0.9905
1.4095 -0.3517 -0.7957 0.9934
1.4858 -0.3145 -0.8318 0.9931
2.0752 -0.2856 -1.1473 0.9905
2.0898 -0.1360 -1.1470 0.9905
2.0923 0.0895 -1.1470 0.9905
2.0878 0.1645 -1.1471 0.9905
2.0442 0.4620 -1.1478 0.9905
2.0268 0.5352 -1.1481 0.9905
2.0069 0.6078 -1.1485 0.9905
1.9845 0.6797 -1.1489 0.9905
1.9321 0.8209 -1.1498 0.9905
1.9023 0.8902 -1.1503 0.9905
1.8700 0.9583 -1.1509 0.9905
1.7984 1.0912 -1.1521 0.9905
1.6824 1.1054 -1.1025 0.9909
1.6738 1.2807 -1.1543 0.9904
1.6279 1.3408 -1.1551 0.9904
1.4776 1.5115 -1.1577 0.9904
1.4236 1.5648 -1.1587 0.9904
1.3676 1.6163 -1.1596 0.9904
1.3099 1.6658 -1.1606 0.9904
1.2504 1.7133 -1.1617 0.9904
0.9288 1.9182 -1.1673 0.9903
0.8602 1.9523 -1.1685 0.9903
0.5005 2.0857 -1.1748 0.9903
0.3503 2.1210 -1.1774 0.9902
0.2743 2.1346 -1.1787 0.9902
-0.1119 2.1615 -1.1855 0.9902
-0.2673 2.1528 -1.1882 0.9902
-0.3448 2.1443 -1.1895 0.9901
-0.4221 2.1329 -1.1909 0.9901
-0.5753 2.1019 -1.1935 0.9901
-0.7262 2.0597 -1.1962 0.9901
-1.0179 1.9428 -1.2013 0.9900
-1.1570 1.8685 -1.2037 0.9900
-0.8619 1.2864 -0.8481 0.9930
-0.8700 1.1161 -0.7750 0.9936
-1.0715 1.1054 -0.8432 0.9930
-1.3305 1.1054 -0.9474 0.9921
-1.4321 1.1054 -0.9908 0.9918
-1.8500 1.2268 -1.2158 0.9899
-1.9747 1.0226 -1.2180 0.9899
-2.0112 0.9516 -1.2186 0.9899
-2.1532 0.5783 -1.2211 0.9899
-2.1732 0.5008 -1.2214 0.9899
-2.1903 0.4226 -1.2217 0.9899
-2.2157 0.2644 -1.2222 0.9899
-2.2294 0.1048 -1.2224 0.9899
-2.2118 -0.2949 -1.2221 0.9899
-1.5175 -0.3145 -0.8488 0.9930
-1.2837 -0.3145 -0.7239 0.9940
-1.1097 -0.3145 -0.6317 0.9948
-0.9742 -0.3534 -0.5676 0.9953
-0.9690 -0.3914 -0.5724 0.9952
-0.9647 -0.4306 -0.5786 0.9952
-0.3269 -1.7792 -1.0444 0.9917
-0.2625 -1.7879 -1.0433 0.9917
-0.1980 -1.7942 -1.0422 0.9917
-0.0686 -1.7999 -1.0399 0.9917
-0.0039 -1.7992 -1.0388 0.9917
0.1249 -1.7910 -1.0365 0.9917
