ply
format ascii 1.0
element vertex 1573
property float32 x
property float32 y
property float32 z
property float32 I
end_header
13.4472 -21.9137 3.9387 0.9012
14.5283 -21.8708 4.0223 0.8992
36.2462 -24.2133 6.6778 0.8383
9.7656 -3.4243 1.5853 0.9590
-43.1056 6.2508 5.6720 0.8389
-28.7556 -1.0290 3.7470 0.8904
-28.6197 -2.0563 3.7365 0.8907
-19.2557 -3.4958 2.5485 0.9241
-27.1586 -5.9463 3.6204 0.8939
-24.1738 -41.4218 6.2454 0.8241
-23.3148 -43.4679 6.4233 0.8196
-18.3424 -41.0290 5.8524 0.8342
-13.4547 -41.6384 5.6982 0.8382
-6.9901 -41.0369 5.4208 0.8454
-5.3425 -40.0044 5.2557 0.8498
-2.5013 -41.0536 5.3560 0.8471
2.1090 -44.8253 5.8437 0.8344
4.7842 -40.0381 5.2509 0.8499
9.0039 -39.0182 5.2145 0.8508
10.7956 -40.1374 5.4125 0.8456
10.6989 -34.7461 4.7343 0.8636
11.0185 -31.6863 4.3686 0.8734
12.0890 -31.1116 4.3465 0.8740
14.6132 -30.8380 4.4438 0.8714
13.8727 -22.6071 3.4540 0.8985
15.1216 -22.7640 3.5588 0.8956
9.7124 -3.4056 1.3403 0.9593
-3.0377 9.4128 1.0621 0.9610
-49.5834 0.0092 5.3243 0.8192
-47.4079 -3.4062 5.1039 0.8260
-46.3596 -5.0114 5.0072 0.8290
-46.8584 -6.7772 5.0841 0.8266
-26.6403 -38.9246 5.0650 0.8272
-25.2364 -39.8770 5.0675 0.8271
-23.7189 -40.6424 5.0531 0.8275
-15.7769 -38.9954 4.5171 0.8443
-13.7522 -42.5592 4.8027 0.8353
-6.1441 -46.0061 4.9841 0.8297
-1.0985 -44.1133 4.7384 0.8373
0.4976 -44.9916 4.8316 0.8344
0.6900 -3.5715 0.3906 0.9855
11.8400 -34.0484 3.8709 0.8650
13.1725 -33.9000 3.9054 0.8639
9.6549 -3.3855 1.0986 0.9597
-48.4937 0.0090 4.1051 0.8231
-47.6160 -1.7039 4.0334 0.8259
-45.5340 -3.2715 3.8645 0.8326
-47.4272 -5.1268 4.0382 0.8257
-19.2385 -3.4927 1.6552 0.9245
-8.7081 -3.6338 0.7988 0.9628
-27.9395 -40.8230 4.1876 0.8199
-16.7432 -41.3839 3.7791 0.8359
-14.1681 -43.8462 3.9007 0.8311
-5.3872 -40.3390 3.4451 0.8493
0.6904 -3.5735 0.3081 0.9855
-49.0089 -1.7538 3.0410 0.8216
-19.2304 -3.4912 1.2120 0.9247
-8.7170 -3.2748 0.5774 0.9634
0.6907 -3.5755 0.2258 0.9855
11.7180 -16.3342 1.2466 0.9226
9.5975 -3.3653 0.6307 0.9601
-3.0383 9.4146 0.3901 0.9612
-36.0551 -21.5707 1.6567 0.8452
-33.9628 -22.0144 1.5959 0.8504
-25.6178 -40.4796 1.8889 0.8255
-17.5581 -43.3979 1.8460 0.8291
0.6911 -3.5775 0.1437 0.9855
11.7259 -16.3451 0.7932 0.9226
45.7922 -19.8571 1.9681 0.8189
9.5781 -3.3585 0.4002 0.9602
-3.0385 9.4151 0.1671 0.9612
-49.8538 -3.5819 0.8443 0.8188
-8.7426 -3.2845 0.1578 0.9633
-34.4540 -15.8547 0.6407 0.8592
-43.9791 -22.1871 0.8321 0.8211
6.7026 -42.9291 0.7339 0.8404
0.6915 -3.5795 0.0616 0.9855
9.8143 -28.2232 0.5047 0.8873
10.8235 -25.1383 0.4623 0.8963
39.4236 -30.6505 0.8435 0.8189
39.4949 -28.4886 0.8226 0.8230
39.3884 -26.3122 0.8002 0.8274
40.5121 -23.0361 0.7872 0.8299
41.1124 -21.4596 0.7834 0.8307
42.8208 -20.4275 0.8014 0.8271
44.6010 -19.3405 0.8212 0.8233
9.5445 -3.3467 0.1708 0.9603
-8.2455 6.7135 -0.0599 0.9584
-46.7660 10.2575 -0.2696 0.8257
-49.7332 -3.5732 -0.2807 0.8192
-19.2067 -3.4869 -0.1099 0.9249
-8.7670 -3.2936 -0.0527 0.9632
-8.7388 -3.6466 -0.0533 0.9628
-34.4397 -15.8481 -0.2134 0.8593
-17.4655 -43.1690 -0.2622 0.8300
-10.9642 -44.6818 -0.2590 0.8319
-9.2720 -44.6669 -0.2568 0.8332
-0.5044 -20.2572 -0.1141 0.9221
0.4013 -36.2804 -0.2043 0.8649
6.6883 -42.8377 -0.2441 0.8408
0.6919 -3.5815 -0.0205 0.9855
9.9770 -32.4018 -0.1909 0.8732
10.2141 -26.2863 -0.1588 0.8933
10.8235 -25.1383 -0.1541 0.8963
39.0330 -28.1555 -0.2710 0.8249
7.1488 -4.7755 -0.0484 0.9662
39.5067 -24.3843 -0.2614 0.8305
40.7075 -21.2483 -0.2585 0.8322
9.9542 -4.7486 -0.0621 0.9568
43.7067 -18.9527 -0.2682 0.8265
7.1494 -2.2217 -0.0422 0.9705
5.3094 17.2203 -0.5074 0.9304
7.2368 31.3075 -0.9048 0.8793
6.2258 32.1627 -0.9224 0.8771
5.1671 33.0140 -0.9409 0.8748
4.0587 33.8606 -0.9603 0.8724
0.4156 36.3590 -1.0239 0.8646
-0.9119 37.1731 -1.0470 0.8617
-2.2996 37.9749 -1.0713 0.8588
-3.7497 38.7625 -1.0966 0.8557
-5.2647 39.5336 -1.1230 0.8525
-8.4982 41.0158 -1.1795 0.8457
-10.2213 41.7214 -1.2095 0.8421
-17.8729 44.2233 -1.3431 0.8262
-19.9849 44.7475 -1.3800 0.8219
-7.7092 7.7992 -0.3088 0.9571
-7.6847 7.2348 -0.2972 0.9586
-7.7312 6.7712 -0.2894 0.9597
-7.9766 6.4945 -0.2896 0.9597
-8.5771 6.4851 -0.3028 0.9579
-20.8290 10.5178 -0.6570 0.9109
-24.1582 9.0861 -0.7268 0.9019
-15.2243 -2.2019 -0.4331 0.9403
-19.1989 -3.4855 -0.5494 0.9249
-18.0109 -4.6278 -0.5236 0.9283
-8.7915 -3.3028 -0.2644 0.9631
-8.7336 -3.6445 -0.2665 0.9628
-17.8942 -44.2289 -1.3435 0.8262
-14.9697 -41.2019 -1.2344 0.8391
-13.9110 -43.0507 -1.2739 0.8344
-10.2395 -41.7284 -1.2098 0.8420
-8.5156 -41.0233 -1.1798 0.8456
-6.8635 -40.2934 -1.1509 0.8491
-4.7864 -35.8400 -1.0181 0.8653
-2.3142 -37.9829 -1.0715 0.8588
-0.5044 -20.2572 -0.5706 0.9221
1.6723 -35.5430 -1.0019 0.8673
4.0470 -33.8692 -0.9605 0.8724
0.6923 -3.5835 -0.1028 0.9855
7.2266 -31.3163 -0.9050 0.8793
9.1137 -29.5981 -0.8720 0.8834
1.6021 -4.6072 -0.1373 0.9807
10.3049 -26.5202 -0.8011 0.8924
11.6303 -27.0121 -0.8281 0.8890
9.4136 -19.8655 -0.6190 0.9158
2.9170 -4.7536 -0.1570 0.9779
16.2420 -21.0031 -0.7476 0.8992
19.2549 -23.1306 -0.8474 0.8865
4.4323 -4.6066 -0.1800 0.9747
2.9251 -2.1100 -0.1016 0.9857
4.3656 -2.0826 -0.1362 0.9808
5.7544 -2.2532 -0.1740 0.9756
25.3793 -6.8968 -0.7405 0.9001
25.6466 -5.0236 -0.7359 0.9007
25.7483 -4.0885 -0.7341 0.9009
25.8290 -3.1542 -0.7327 0.9011
5.4389 17.6404 -0.9362 0.9287
2.3246 19.3930 -0.9905 0.9248
1.6454 19.6969 -1.0024 0.9239
-0.5028 20.4988 -1.0399 0.9212
-2.8117 21.1132 -1.0802 0.9182
-4.4347 21.4036 -1.1085 0.9162
-3.0122 9.3337 -0.4974 0.9615
-9.6449 21.5955 -1.1995 0.9096
-11.4680 21.3998 -1.2313 0.9073
-12.3896 21.2478 -1.2474 0.9062
-13.3158 21.0580 -1.2635 0.9050
-14.2446 20.8297 -1.2798 0.9039
-5.8989 6.8952 -0.4602 0.9643
-6.3196 6.3935 -0.4559 0.9646
-9.7800 6.3444 -0.5912 0.9544
-24.7533 14.8216 -1.4632 0.8909
-20.8198 10.5131 -1.1828 0.9108
-22.8318 9.5375 -1.2549 0.9056
-24.5078 9.2176 -1.3279 0.9004
-28.6110 9.6017 -1.5305 0.8861
-29.5221 8.7400 -1.5614 0.8840
-33.7034 8.6732 -1.7649 0.8699
-35.2697 3.8259 -1.7992 0.8675
-35.4445 2.5599 -1.8022 0.8673
-35.5498 1.2854 -1.8041 0.8672
-35.5505 -1.2722 -1.8041 0.8672
-19.4418 -2.1016 -0.9917 0.9247
-33.4057 -9.8763 -1.7666 0.8698
-5.4400 -2.0437 -0.2947 0.9770
-4.1197 -2.0784 -0.2340 0.9817
-3.9172 -2.1563 -0.2268 0.9823
-24.2336 -15.7080 -1.4646 0.8908
-22.3642 -16.8962 -1.4215 0.8938
-21.5159 -17.5050 -1.4067 0.8949
-5.3262 -4.6613 -0.3589 0.9721
-3.9550 -4.6195 -0.3084 0.9759
-14.2542 -20.8271 -1.2799 0.9039
-8.7557 -21.6413 -1.1839 0.9107
-7.8677 -21.6548 -1.1684 0.9119
-6.1280 -21.5881 -1.1381 0.9140
-1.1349 -4.6249 -0.2415 0.9811
-3.6235 -21.2726 -1.0944 0.9172
-0.5047 -20.2695 -1.0283 0.9220
0.2240 -20.2535 -1.0272 0.9221
0.2166 -4.6032 -0.2337 0.9817
0.6927 -3.5856 -0.1852 0.9855
5.4330 -17.6444 -0.9363 0.9287
1.6023 -4.6079 -0.2474 0.9807
7.0772 -16.4372 -0.9076 0.9308
7.5882 -16.0132 -0.8987 0.9315
2.9239 -4.7648 -0.2835 0.9779
1.5136 -2.1098 -0.1317 0.9897
12.2364 -14.6993 -0.9700 0.9263
12.6597 -14.1414 -0.9626 0.9268
13.4480 -13.0066 -0.9488 0.9278
13.8133 -12.4307 -0.9424 0.9283
14.1598 -11.8495 -0.9364 0.9287
14.4876 -11.2636 -0.9307 0.9291
2.9262 -2.1108 -0.1830 0.9857
15.8519 -8.2743 -0.9068 0.9309
4.3665 -2.0830 -0.2453 0.9808
16.9057 -4.5941 -0.8884 0.9322
17.1197 -3.3534 -0.8847 0.9325
17.2014 -2.7314 -0.8833 0.9326
17.2663 -2.1086 -0.8822 0.9327
17.3459 -0.8612 -0.8808 0.9328
3.8718 12.5577 -0.9635 0.9487
1.6276 13.5781 -1.0027 0.9466
0.1603 14.0237 -1.0283 0.9453
-0.3469 14.1411 -1.0372 0.9448
-1.9166 14.3920 -1.0646 0.9434
-2.4542 14.4399 -1.0740 0.9429
-2.9979 14.4691 -1.0834 0.9425
-4.1014 14.4691 -1.1027 0.9415
-3.0091 9.3243 -0.7184 0.9615
-5.2213 14.3877 -1.1223 0.9405
-5.7855 14.3151 -1.1321 0.9400
-6.3513 14.2209 -1.1420 0.9394
-6.9178 14.1045 -1.1519 0.9389
-9.1706 13.4100 -1.1912 0.9369
-5.7948 7.8521 -0.7155 0.9616
-5.9047 6.9020 -0.6660 0.9642
-6.7807 6.3837 -0.6828 0.9633
-18.6222 8.5778 -1.5033 0.9211
-19.4400 7.3115 -1.5229 0.9201
-19.7632 6.6324 -1.5285 0.9198
-20.0556 5.9375 -1.5336 0.9195
-20.3161 5.2281 -1.5382 0.9193
-20.7380 3.7729 -1.5455 0.9189
-20.8979 3.0304 -1.5483 0.9188
-21.1127 1.5248 -1.5521 0.9186
-21.1848 0.0039 -1.5533 0.9185
-21.1134 -1.5170 -1.5521 0.9186
-12.4793 -2.2656 -0.9300 0.9504
-9.5755 -2.0965 -0.7187 0.9614
-20.0584 -5.9302 -1.5337 0.9195
-5.3527 -2.2336 -0.4253 0.9770
-18.7097 -8.6096 -1.5101 0.9207
-18.3013 -9.2329 -1.5030 0.9211
-3.9158 -2.1555 -0.3277 0.9822
-16.9262 -10.9714 -1.4790 0.9223
-6.7130 -4.7024 -0.6010 0.9677
-15.8991 -12.0118 -1.4611 0.9232
-2.5510 -2.0754 -0.2411 0.9869
-13.0329 -14.1591 -1.4110 0.9257
-3.9544 -4.6188 -0.4458 0.9759
-11.1693 -15.1231 -1.3785 0.9274
-10.5136 -15.3615 -1.3649 0.9281
-9.8453 -15.5570 -1.3499 0.9288
-4.4548 -15.6938 -1.1962 0.9367
-3.2577 -15.6938 -1.1752 0.9377
-2.6732 -15.6934 -1.1672 0.9381
0.1735 -15.6873 -1.1503 0.9390
0.0995 -2.1153 -0.1553 0.9915
0.1714 -2.0605 -0.1516 0.9917
0.2474 -2.0701 -0.1529 0.9917
2.3976 -15.3564 -1.1396 0.9396
0.6931 -3.5876 -0.2679 0.9855
2.6879 -4.7556 -0.4005 0.9783
2.9308 -4.7761 -0.4109 0.9778
3.0691 -4.6202 -0.4067 0.9780
1.5142 -2.1107 -0.1905 0.9896
1.5922 -2.0589 -0.1908 0.9896
9.2911 -10.3785 -1.0214 0.9457
4.4337 -4.6080 -0.4689 0.9747
9.9073 -9.5822 -1.0106 0.9462
10.1945 -9.1741 -1.0056 0.9465
10.4678 -8.7599 -1.0008 0.9467
10.7272 -8.3401 -0.9963 0.9470
7.1629 -4.7850 -0.6316 0.9660
0.8912 -0.5067 -0.0752 0.9959
7.1596 -2.2249 -0.5497 0.9704
11.1170 -3.0210 -0.8447 0.9548
11.2697 -2.2075 -0.8420 0.9550
12.9601 -1.5827 -0.9573 0.9490
12.9993 -1.1150 -0.9566 0.9490
13.0249 -0.6467 -0.9562 0.9490
3.3322 9.5709 -0.9730 0.9601
2.6673 9.9023 -0.9846 0.9596
1.6153 10.3209 -1.0029 0.9589
1.2512 10.4380 -1.0093 0.9586
0.1225 10.7172 -1.0290 0.9578
-0.6564 10.8397 -1.0426 0.9573
-1.4526 10.9080 -1.0565 0.9567
-2.6712 10.9034 -1.0777 0.9559
-3.0061 9.3149 -0.9397 0.9614
-3.9061 10.7635 -1.0993 0.9550
-4.3186 10.6857 -1.1065 0.9547
-4.7305 10.5919 -1.1137 0.9545
-5.1411 10.4820 -1.1209 0.9542
-5.5496 10.3559 -1.1280 0.9539
-6.3579 10.0546 -1.1421 0.9533
-5.8580 7.3680 -0.9037 0.9629
-5.8896 6.4033 -0.8352 0.9656
-6.2934 6.3670 -0.8595 0.9647
-7.3360 6.4250 -0.9362 0.9616
-8.5073 6.4322 -1.0239 0.9580
-12.5315 7.5036 -1.4023 0.9430
-14.1213 4.7391 -1.4300 0.9419
-14.4903 3.7289 -1.4365 0.9416
-14.9601 1.6228 -1.4447 0.9413
-15.0195 1.0847 -1.4457 0.9413
-15.0556 -0.5388 -1.4463 0.9413
-15.0200 -1.0792 -1.4457 0.9413
-13.0578 -1.8886 -1.2667 0.9484
-12.4703 -2.2640 -1.2168 0.9503
-8.1630 -2.0974 -0.8092 0.9667
-13.4147 -6.1730 -1.4177 0.9424
-3.9144 -2.1547 -0.4290 0.9822
-12.2072 -7.9126 -1.3966 0.9432
-6.7105 -4.7007 -0.7866 0.9676
-11.5053 -8.6923 -1.3844 0.9437
-2.5506 -2.0751 -0.3157 0.9869
-2.5174 -2.2031 -0.3212 0.9866
-9.9406 -10.0493 -1.3571 0.9448
-8.6555 -10.8782 -1.3346 0.9457
-8.2108 -11.1173 -1.3269 0.9460
-1.1984 -2.0534 -0.2283 0.9905
-1.1227 -2.0931 -0.2280 0.9905
-5.4347 -12.1565 -1.2784 0.9479
-4.9619 -12.2643 -1.2701 0.9482
-3.5423 -12.4789 -1.2454 0.9492
-2.6018 -12.5337 -1.2290 0.9499
-1.6721 -12.5207 -1.2127 0.9505
-0.7581 -12.4426 -1.1968 0.9511
0.0996 -2.1171 -0.2035 0.9915
0.1714 -2.0608 -0.1985 0.9917
0.2473 -2.0698 -0.2001 0.9917
2.2604 -11.7006 -1.1441 0.9532
2.6631 -11.5404 -1.1371 0.9535
3.0576 -11.3679 -1.1302 0.9538
1.6028 -4.6093 -0.4685 0.9806
4.1891 -10.7809 -1.1104 0.9546
4.8977 -10.3357 -1.0980 0.9551
5.2377 -10.0981 -1.0921 0.9553
2.9378 -4.7875 -0.5393 0.9777
3.0683 -4.6189 -0.5324 0.9780
1.5149 -2.1116 -0.2495 0.9896
1.5924 -2.0592 -0.2499 0.9896
7.0653 -8.4874 -1.0602 0.9566
4.4345 -4.6088 -0.6140 0.9746
7.8371 -7.5799 -1.0467 0.9571
2.7805 -2.1617 -0.3381 0.9859
0.7740 -0.5583 -0.0916 0.9962
0.7944 -0.5307 -0.0917 0.9962
8.2602 -4.3116 -0.8946 0.9632
8.5074 -3.6891 -0.8902 0.9634
8.7149 -3.0558 -0.8866 0.9636
7.1630 -2.2260 -0.7201 0.9703
8.8825 -2.4138 -0.8837 0.9637
8.9514 -2.0901 -0.8825 0.9637
9.0156 -1.7660 -0.8820 0.9638
10.3990 -0.8919 -1.0020 0.9589
3.0362 8.7208 -1.0969 0.9635
2.6899 8.7243 -1.0845 0.9639
1.6904 8.7326 -1.0566 0.9648
1.0472 8.7368 -1.0452 0.9652
0.7300 8.7385 -1.0416 0.9653
0.4145 8.7400 -1.0394 0.9654
0.0999 8.7412 -1.0384 0.9654
-0.2145 8.7448 -1.0391 0.9654
-0.5297 8.7483 -1.0411 0.9653
-0.8478 8.7641 -1.0459 0.9652
-1.8152 8.7611 -1.0628 0.9646
-2.1431 8.7477 -1.0698 0.9644
-2.8208 8.7408 -1.0910 0.9637
-3.5314 8.7379 -1.1195 0.9627
-3.9016 8.7359 -1.1365 0.9622
-5.5168 8.7245 -1.2262 0.9593
-6.4325 8.7163 -1.2868 0.9573
-6.3551 7.9932 -1.2130 0.9597
-7.1516 8.3595 -1.3068 0.9567
-6.2923 6.3658 -1.0632 0.9646
-6.7588 6.3631 -1.1027 0.9633
-9.0029 6.8069 -1.3407 0.9556
-10.2368 5.1691 -1.3622 0.9549
-10.8130 4.0668 -1.3723 0.9545
-11.2502 2.8951 -1.3799 0.9543
-11.4594 2.0848 -1.3836 0.9542
-11.5384 1.6732 -1.3849 0.9541
-11.6001 1.2583 -1.3860 0.9541
-11.6710 0.4220 -1.3873 0.9540
-11.6711 -0.4177 -1.3873 0.9540
-11.6447 -0.8367 -1.3868 0.9541
-10.0582 -1.8260 -1.2143 0.9597
-9.5683 -2.0950 -1.1635 0.9613
-9.6334 -3.2290 -1.2069 0.9599
-9.5368 -6.1817 -1.3500 0.9553
-6.7080 -4.6989 -0.9729 0.9675
-2.5501 -2.0747 -0.3905 0.9868
-2.5142 -2.2004 -0.3969 0.9866
-8.1268 -7.6453 -1.3254 0.9561
-7.8145 -7.8999 -1.3199 0.9562
-7.4935 -8.1410 -1.3143 0.9564
-6.4855 -8.7813 -1.2967 0.9570
-6.1367 -8.9664 -1.2907 0.9572
-1.1982 -2.0531 -0.2824 0.9905
-1.1221 -2.0921 -0.2820 0.9905
-3.9548 -9.7750 -1.2526 0.9584
-3.2085 -9.9296 -1.2395 0.9588
-1.1343 -4.6228 -0.5654 0.9810
-0.9769 -10.0598 -1.2006 0.9601
-0.6114 -10.0348 -1.1942 0.9603
-0.2489 -9.9971 -1.1879 0.9605
0.1100 -9.9468 -1.1816 0.9607
0.0997 -2.1189 -0.2520 0.9915
0.1714 -2.0611 -0.2457 0.9917
2.4928 -9.2679 -1.1400 0.9621
2.8106 -9.1277 -1.1345 0.9623
3.7238 -8.6488 -1.1185 0.9628
4.0141 -8.4708 -1.1135 0.9629
4.2968 -8.2842 -1.1085 0.9631
4.5720 -8.0892 -1.1037 0.9633
1.5927 -2.0595 -0.3093 0.9896
6.0525 -6.7609 -1.0779 0.9641
6.6769 -6.0086 -1.0670 0.9645
0.7538 -0.5860 -0.1134 0.9962
6.8586 -3.5800 -0.9190 0.9693
7.0697 -3.0656 -0.9153 0.9694
5.7661 -2.2577 -0.7356 0.9754
7.2471 -2.5411 -0.9122 0.9695
7.1665 -2.2270 -0.8914 0.9702
7.3906 -2.0084 -0.9097 0.9696
7.5304 -1.7583 -0.9186 0.9693
8.5932 -1.3645 -1.0335 0.9656
8.6312 -1.0540 -1.0329 0.9656
8.6594 -0.7427 -1.0324 0.9656
0.6883 8.2396 -1.1715 0.9671
0.3932 8.2922 -1.1762 0.9670
0.0953 8.3328 -1.1807 0.9669
-0.8124 8.3982 -1.1955 0.9665
-1.1187 8.4006 -1.2008 0.9663
-1.7354 8.3758 -1.2120 0.9660
-2.3557 8.3105 -1.2239 0.9657
-2.6663 8.2619 -1.2301 0.9655
-2.9745 8.1964 -1.2355 0.9654
-3.2814 8.1193 -1.2408 0.9652
-3.8893 7.9297 -1.2514 0.9649
-4.1893 7.8174 -1.2567 0.9648
-5.0676 7.4103 -1.2720 0.9644
-5.6300 7.0812 -1.2818 0.9641
-5.9028 6.8998 -1.2866 0.9640
-6.1692 6.7073 -1.2912 0.9639
-6.4288 6.5040 -1.2958 0.9637
-6.9256 6.0656 -1.3044 0.9635
-7.3890 5.5867 -1.3125 0.9633
-7.6071 5.3329 -1.3163 0.9632
-7.8154 5.0700 -1.3200 0.9631
-8.3776 4.2303 -1.3298 0.9628
-8.5427 3.9350 -1.3327 0.9627
-9.1853 2.3637 -1.3439 0.9624
-9.3516 1.7013 -1.3468 0.9623
-9.4143 1.3652 -1.3479 0.9623
-9.4984 0.6860 -1.3493 0.9623
-9.5196 0.3442 -1.3497 0.9622
-9.5267 0.0018 -1.3498 0.9622
-9.5197 -0.3407 -1.3497 0.9622
-7.9721 -2.3569 -1.1779 0.9670
-7.4990 -3.4508 -1.1696 0.9672
-7.3542 -3.7101 -1.1671 0.9673
-6.8610 -4.4473 -1.1585 0.9675
-6.4870 -4.9009 -1.1520 0.9677
-2.5497 -2.0744 -0.4657 0.9868
-6.6837 -6.2877 -1.3002 0.9636
-6.4315 -6.5018 -1.2958 0.9637
-6.1719 -6.7053 -1.2913 0.9639
-5.6329 -7.0794 -1.2819 0.9641
-4.7819 -7.5561 -1.2670 0.9645
-1.1980 -2.0528 -0.3368 0.9904
-1.1216 -2.0911 -0.3362 0.9905
-3.5896 -8.0294 -1.2462 0.9651
-3.2846 -8.1184 -1.2409 0.9652
-2.6695 -8.2613 -1.2301 0.9655
-2.3604 -8.3153 -1.2247 0.9657
-1.1342 -4.6220 -0.6743 0.9810
-1.1241 -8.4168 -1.2032 0.9663
-0.8171 -8.4141 -1.1978 0.9664
-0.5118 -8.4005 -1.1925 0.9666
0.0923 -8.3412 -1.1819 0.9669
0.0998 -2.1207 -0.3008 0.9915
0.1714 -2.0615 -0.2931 0.9917
0.2472 -2.0690 -0.2952 0.9916
1.5482 -8.0141 -1.1565 0.9676
2.3721 -7.7039 -1.1421 0.9680
2.8962 -7.4534 -1.1330 0.9682
3.1499 -7.3157 -1.1286 0.9683
3.3977 -7.1702 -1.1242 0.9685
3.8752 -6.8563 -1.1159 0.9687
4.1044 -6.6885 -1.1119 0.9688
1.5929 -2.0599 -0.3689 0.9895
4.9537 -5.9508 -1.0971 0.9692
4.5185 -5.0474 -0.9599 0.9730
4.4359 -4.6103 -0.9065 0.9745
4.8409 -4.6821 -0.9542 0.9732
0.7149 -0.6433 -0.1363 0.9961
0.7744 -0.5586 -0.1353 0.9961
0.7949 -0.5310 -0.1354 0.9961
0.8154 -0.5033 -0.1358 0.9961
5.8591 -3.0583 -0.9365 0.9737
4.3700 -2.0847 -0.6860 0.9806
5.7691 -2.2589 -0.8778 0.9753
6.1976 -2.1732 -0.9306 0.9738
6.4624 -1.7561 -0.9489 0.9733
1.5078 -0.2953 -0.2177 0.9938
1.4645 -0.1788 -0.2090 0.9941
1.4347 -0.1231 -0.2040 0.9942
7.4287 -0.3688 -1.0539 0.9704
2.0527 6.6576 -1.1477 0.9722
1.5803 6.8366 -1.1560 0.9720
1.3384 6.9141 -1.1602 0.9719
1.0930 6.9835 -1.1645 0.9718
0.0820 7.1752 -1.1821 0.9713
-0.4370 7.2174 -1.1912 0.9711
-0.9618 7.2225 -1.2003 0.9709
-1.4896 7.1894 -1.2095 0.9707
-2.5427 7.0066 -1.2279 0.9702
-3.0620 6.8560 -1.2370 0.9700
-3.3185 6.7659 -1.2415 0.9699
-3.8229 6.5562 -1.2503 0.9697
-4.3134 6.3075 -1.2588 0.9695
-4.7867 6.0205 -1.2671 0.9693
-5.0158 5.8630 -1.2711 0.9692
-5.2394 5.6963 -1.2750 0.9691
-5.8726 5.1434 -1.2860 0.9688
-6.2597 4.7329 -1.2928 0.9687
-6.6152 4.2914 -1.2990 0.9685
-7.2202 3.3258 -1.3096 0.9683
-7.4647 2.8075 -1.3138 0.9682
-7.5715 2.5410 -1.3157 0.9681
-7.6678 2.2701 -1.3174 0.9681
-7.9428 1.1518 -1.3222 0.9680
-8.0124 0.5787 -1.3234 0.9680
-7.8914 -1.4327 -1.3213 0.9680
-6.6461 -2.2277 -1.1547 0.9720
-6.5525 -2.4616 -1.1531 0.9720
-6.2177 -3.1368 -1.1473 0.9722
-5.9521 -3.5610 -1.1426 0.9723
-5.8074 -3.7643 -1.1401 0.9723
-2.5111 -2.1976 -0.5497 0.9866
-2.2966 -2.1605 -0.5194 0.9873
-4.6003 -4.9978 -1.1190 0.9728
-3.9518 -4.6158 -1.0010 0.9757
-4.7891 -6.0189 -1.2671 0.9693
-4.5549 -6.1672 -1.2630 0.9694
-1.1978 -2.0525 -0.3915 0.9904
-1.1211 -2.0901 -0.3907 0.9904
-1.0692 -2.1780 -0.3997 0.9902
-3.0647 -6.8552 -1.2370 0.9700
-2.8060 -6.9355 -1.2325 0.9701
-2.0203 -7.1172 -1.2188 0.9705
-1.1340 -4.6213 -0.7839 0.9809
-1.4923 -7.1892 -1.2096 0.9707
-0.9645 -7.2224 -1.2004 0.9709
-0.7016 -7.2247 -1.1958 0.9710
-0.4397 -7.2175 -1.1912 0.9711
-0.1793 -7.2011 -1.1867 0.9712
0.0999 -2.1226 -0.3501 0.9914
0.1715 -2.0618 -0.3408 0.9916
0.2472 -2.0687 -0.3432 0.9916
1.0904 -6.9842 -1.1645 0.9718
0.8265 -3.5815 -0.6055 0.9852
2.9429 -6.2105 -1.1322 0.9725
3.0658 -4.6152 -0.9128 0.9778
1.5932 -2.0602 -0.4290 0.9895
3.7779 -4.5384 -0.9728 0.9763
4.2115 -4.0733 -0.9652 0.9765
0.7166 -0.6449 -0.1588 0.9961
0.7363 -0.6162 -0.1582 0.9961
0.7558 -0.5876 -0.1577 0.9961
0.7753 -0.5592 -0.1575 0.9961
0.8157 -0.5035 -0.1579 0.9961
0.8910 -0.5066 -0.1689 0.9959
0.9424 -0.4919 -0.1751 0.9957
0.9580 -0.4570 -0.1749 0.9957
1.0371 -0.4061 -0.1835 0.9955
6.3863 -1.2509 -1.0721 0.9740
6.4233 -1.0199 -1.0714 0.9740
6.4745 -0.5553 -1.0705 0.9740
2.0090 5.7704 -1.1485 0.9754
1.8058 5.8570 -1.1520 0.9754
1.3891 6.0093 -1.1593 0.9752
0.9599 6.1329 -1.1668 0.9751
0.2970 6.2621 -1.1784 0.9748
0.0719 6.2896 -1.1823 0.9747
-0.1548 6.3092 -1.1862 0.9746
-0.8415 6.3191 -1.1982 0.9744
-1.0717 6.3058 -1.2022 0.9743
-1.5322 6.2541 -1.2103 0.9741
-2.6688 5.9757 -1.2301 0.9737
-2.8910 5.8944 -1.2340 0.9736
-3.3274 5.7065 -1.2416 0.9735
-4.1590 5.2311 -1.2561 0.9732
-4.3563 5.0921 -1.2596 0.9731
-4.5486 4.9454 -1.2629 0.9730
-4.7357 4.7910 -1.2662 0.9730
-5.0926 4.4602 -1.2724 0.9728
-5.4245 4.1014 -1.2782 0.9727
-5.7289 3.7164 -1.2835 0.9726
-5.8700 3.5148 -1.2860 0.9725
-6.1288 3.0948 -1.2905 0.9724
-6.2460 2.8770 -1.2926 0.9724
-6.3547 2.6545 -1.2945 0.9724
-6.4547 2.4277 -1.2962 0.9723
-6.7641 1.4836 -1.3016 0.9722
-6.8180 1.2404 -1.3025 0.9722
-6.8622 0.9951 -1.3033 0.9722
-6.8967 0.7481 -1.3039 0.9722
-6.9215 0.4999 -1.3044 0.9722
-6.9363 0.2508 -1.3046 0.9721
-6.9364 -0.2482 -1.3046 0.9721
-6.9216 -0.4973 -1.3044 0.9722
-6.8626 -0.9926 -1.3033 0.9722
-6.7647 -1.4811 -1.3016 0.9722
-5.9406 -1.7563 -1.1644 0.9751
-5.6659 -2.1286 -1.1376 0.9757
-5.4828 -2.5230 -1.1344 0.9757
-5.3801 -2.7142 -1.1326 0.9758
-5.1531 -3.0829 -1.1287 0.9759
-5.0293 -3.2599 -1.1265 0.9759
-4.7623 -3.5979 -1.1219 0.9760
-2.5488 -2.0736 -0.6176 0.9867
-2.5089 -2.1957 -0.6267 0.9865
-4.3171 -4.0614 -1.1141 0.9762
-3.6520 -4.5899 -1.1025 0.9764
-3.4749 -4.7049 -1.0994 0.9765
-3.1097 -4.9138 -1.0930 0.9766
-1.1976 -2.0521 -0.4466 0.9904
-2.5393 -5.1725 -1.0831 0.9768
-1.9930 -6.1678 -1.2183 0.9740
-1.1338 -4.6206 -0.8943 0.9808
-0.8439 -6.3190 -1.1983 0.9744
-0.6141 -6.3240 -1.1943 0.9745
-0.3851 -6.3208 -1.1903 0.9746
0.1715 -2.0621 -0.3889 0.9916
0.2471 -2.0683 -0.3915 0.9916
1.5970 -5.9374 -1.1557 0.9753
1.5830 -5.1411 -1.0111 0.9783
1.6038 -4.6121 -0.9178 0.9803
1.9364 -4.9835 -1.0049 0.9785
2.2760 -4.8030 -0.9990 0.9786
2.4402 -4.7045 -0.9961 0.9787
2.7565 -4.4920 -0.9906 0.9788
1.5175 -2.1153 -0.4893 0.9895
1.5934 -2.0605 -0.4896 0.9895
3.3374 -4.0091 -0.9805 0.9790
3.4711 -3.8773 -0.9781 0.9790
3.7238 -3.6016 -0.9737 0.9791
0.7577 -0.5890 -0.1804 0.9961
0.7966 -0.5321 -0.1801 0.9961
0.8450 -0.4805 -0.1827 0.9961
0.8753 -0.4569 -0.1856 0.9960
0.9066 -0.4325 -0.1888 0.9959
0.9390 -0.4072 -0.1924 0.9958
4.7364 -1.8545 -0.9561 0.9795
5.5233 -1.7164 -1.0871 0.9767
5.6233 -1.3130 -1.0854 0.9768
5.6964 -0.9045 -1.0841 0.9768
5.7228 -0.6989 -1.0836 0.9768
5.7424 -0.4925 -1.0833 0.9768
5.7552 -0.2857 -1.0831 0.9768
1.7923 5.1480 -1.1523 0.9780
1.2380 5.3557 -1.1619 0.9778
0.4629 5.5416 -1.1755 0.9775
-0.1376 5.6088 -1.1859 0.9773
-0.3401 5.6169 -1.1895 0.9773
-0.5434 5.6177 -1.1930 0.9772
-0.9513 5.5974 -1.2001 0.9771
-1.9654 5.4158 -1.2178 0.9767
-2.5586 5.2167 -1.2282 0.9765
-2.7520 5.1354 -1.2316 0.9765
-2.9428 5.0468 -1.2349 0.9764
-3.6733 4.6201 -1.2477 0.9762
-3.8463 4.4959 -1.2507 0.9761
-4.0148 4.3650 -1.2536 0.9760
-4.3375 4.0835 -1.2592 0.9759
-4.7811 3.6149 -1.2670 0.9758
-4.9172 3.4472 -1.2694 0.9757
-5.2864 2.9125 -1.2758 0.9756
-5.3958 2.7246 -1.2777 0.9756
-5.5926 2.3362 -1.2812 0.9755
-5.6797 2.1362 -1.2827 0.9755
-5.8938 1.5167 -1.2864 0.9754
-6.0643 0.6578 -1.2894 0.9754
-6.0987 0.2205 -1.2900 0.9754
-6.1031 0.0011 -1.2901 0.9754
-6.0988 -0.2182 -1.2900 0.9754
-6.0346 -0.8728 -1.2889 0.9754
-5.9962 -1.0886 -1.2882 0.9754
-5.9494 -1.3026 -1.2874 0.9754
-5.8944 -1.5145 -1.2864 0.9754
-5.2319 -1.7536 -1.1664 0.9777
-4.9855 -1.8730 -1.1258 0.9785
-4.9092 -2.0486 -1.1244 0.9785
-4.8261 -2.2208 -1.1230 0.9785
-4.7366 -2.3896 -1.1214 0.9785
-4.4306 -2.8719 -1.1161 0.9786
-4.3168 -3.0239 -1.1141 0.9787
-4.1974 -3.1712 -1.1120 0.9787
-2.5483 -2.0733 -0.6944 0.9867
-2.5068 -2.1939 -0.7042 0.9865
-3.8082 -3.5826 -1.1052 0.9789
-3.6689 -3.7090 -1.1028 0.9789
-3.2255 -4.0538 -1.0950 0.9790
-3.0700 -4.1568 -1.0923 0.9791
-2.9112 -4.2536 -1.0895 0.9791
-1.1200 -2.0881 -0.5009 0.9904
-0.8811 -2.1779 -0.4966 0.9904
-1.1336 -4.6199 -1.0055 0.9807
-1.0158 -4.8936 -1.0565 0.9798
-0.8368 -4.9124 -1.0533 0.9798
-0.4788 -4.9304 -1.0471 0.9800
0.1000 -2.1263 -0.4500 0.9913
0.9177 -4.7504 -1.0227 0.9804
0.8220 -3.5622 -0.7728 0.9852
1.2496 -4.6458 -1.0169 0.9805
1.5714 -4.5189 -1.0113 0.9806
1.7281 -4.4474 -1.0086 0.9807
2.1797 -4.2024 -1.0007 0.9808
2.3235 -4.1110 -0.9982 0.9809
0.7394 -0.6188 -0.2038 0.9961
0.7587 -0.5899 -0.2031 0.9961
0.7779 -0.5611 -0.2027 0.9961
0.7970 -0.5324 -0.2026 0.9961
4.1276 -1.9691 -0.9667 0.9815
4.9017 -1.7188 -1.0980 0.9790
5.0466 -1.1784 -1.0954 0.9790
5.0828 -0.9956 -1.0948 0.9790
5.1129 -0.8119 -1.0943 0.9791
5.1545 -0.4421 -1.0936 0.9791
1.4520 4.7092 -1.1582 0.9800
1.2850 4.7704 -1.1611 0.9799
1.1155 4.8257 -1.1641 0.9799
0.9437 4.8752 -1.1671 0.9798
-0.1237 5.0435 -1.1857 0.9795
-0.3058 5.0493 -1.1889 0.9794
-1.2199 4.9792 -1.2048 0.9792
-1.4017 4.9451 -1.2080 0.9791
-1.7626 4.8568 -1.2143 0.9790
-2.1177 4.7417 -1.2205 0.9789
-2.4651 4.6000 -1.2266 0.9788
-2.6352 4.5194 -1.2295 0.9787
-2.8026 4.4322 -1.2325 0.9787
-3.1282 4.2388 -1.2381 0.9786
-3.2858 4.1328 -1.2409 0.9785
-3.4397 4.0207 -1.2436 0.9785
-4.0125 3.5142 -1.2536 0.9783
-4.1438 3.3739 -1.2559 0.9783
-4.2699 3.2284 -1.2581 0.9782
-4.5054 2.9228 -1.2622 0.9782
-4.6146 2.7631 -1.2641 0.9781
-4.7176 2.5991 -1.2659 0.9781
-4.8144 2.4311 -1.2676 0.9781
-4.9048 2.2592 -1.2691 0.9781
-5.0656 1.9052 -1.2720 0.9780
-5.1358 1.7235 -1.2732 0.9780
-5.3036 1.1633 -1.2761 0.9779
-5.3791 0.7800 -1.2774 0.9779
-5.4056 0.5864 -1.2779 0.9779
-5.4398 0.0010 -1.2785 0.9779
-5.4361 -0.1945 -1.2784 0.9779
-5.4058 -0.5844 -1.2779 0.9779
-5.3794 -0.7780 -1.2774 0.9779
-5.2554 -1.3504 -1.2753 0.9780
-5.1995 -1.5372 -1.2743 0.9780
-5.1365 -1.7216 -1.2732 0.9780
-4.6611 -1.7511 -1.1702 0.9797
-4.3790 -1.8273 -1.1152 0.9807
-4.3055 -1.9813 -1.1139 0.9807
-4.2262 -2.1321 -1.1125 0.9807
-3.9056 -2.1499 -1.0478 0.9818
-3.7486 -2.8320 -1.1042 0.9809
-2.5046 -2.1920 -0.7822 0.9864
-3.1517 -3.4241 -1.0937 0.9811
-3.0203 -3.5277 -1.0915 0.9811
-2.6055 -3.8070 -1.0842 0.9812
-2.4613 -3.8891 -1.0817 0.9813
-1.1973 -2.0515 -0.5583 0.9903
-2.0136 -4.1017 -1.0739 0.9814
-1.8602 -4.1610 -1.0712 0.9814
-1.7051 -4.2145 -1.0685 0.9815
-0.7798 -2.1464 -0.5367 0.9907
-1.2319 -4.3398 -1.0602 0.9816
-1.0723 -4.3697 -1.0575 0.9817
-0.7515 -4.4120 -1.0519 0.9818
-0.4303 -4.4308 -1.0462 0.9819
-0.2700 -4.4315 -1.0434 0.9819
0.2471 -2.0676 -0.4894 0.9915
1.1262 -4.1873 -1.0191 0.9823
1.2728 -4.1337 -1.0165 0.9824
1.4171 -4.0751 -1.0140 0.9824
1.5588 -4.0117 -1.0115 0.9825
1.6980 -3.9436 -1.0091 0.9825
1.8343 -3.8709 -1.0067 0.9826
2.0980 -3.7120 -1.0021 0.9826
2.2252 -3.6262 -0.9999 0.9827
2.3490 -3.5362 -0.9977 0.9827
2.6994 -3.2427 -0.9916 0.9828
3.0159 -2.9169 -0.9861 0.9829
3.1134 -2.8018 -0.9844 0.9829
3.5374 -2.1834 -0.9770 0.9831
3.6760 -1.9188 -0.9746 0.9831
3.7385 -1.7834 -0.9735 0.9831
4.0320 -1.7484 -1.0329 0.9821
4.4409 -1.5572 -1.1060 0.9808
4.6555 -0.5685 -1.1023 0.9809
4.6717 -0.4007 -1.1020 0.9809
1.3206 4.2831 -1.1605 0.9817
1.1684 4.3377 -1.1631 0.9816
1.0141 4.3870 -1.1658 0.9816
0.8577 4.4310 -1.1686 0.9815
0.5397 4.5025 -1.1741 0.9814
0.2158 4.5514 -1.1798 0.9813
-0.1123 4.5773 -1.1855 0.9813
-0.2774 4.5814 -1.1884 0.9812
-0.4430 4.5796 -1.1913 0.9812
-0.6088 4.5718 -1.1942 0.9811
-1.1054 4.5122 -1.2028 0.9810
-1.2700 4.4802 -1.2057 0.9809
-1.4336 4.4421 -1.2086 0.9809
-2.5343 4.0079 -1.2278 0.9806
-2.9693 3.7347 -1.2354 0.9805
-1.2236 1.3303 -0.4680 0.9926
-1.3116 1.3269 -0.4831 0.9923
-3.5000 3.2951 -1.2446 0.9803
-3.7403 3.0453 -1.2488 0.9803
-3.8534 2.9135 -1.2508 0.9802
-4.0647 2.6369 -1.2545 0.9802
-4.1625 2.4924 -1.2562 0.9802
-4.2549 2.3442 -1.2578 0.9801
-4.4226 2.0371 -1.2607 0.9801
-4.4977 1.8788 -1.2620 0.9801
-4.5666 1.7175 -1.2632 0.9800
-4.6294 1.5536 -1.2643 0.9800
-4.6860 1.3873 -1.2653 0.9800
-4.8472 0.7029 -1.2681 0.9800
-4.8709 0.5284 -1.2686 0.9800
-4.8879 0.3530 -1.2689 0.9800
-4.8981 0.1771 -1.2690 0.9800
-4.9015 0.0009 -1.2691 0.9800
-4.8474 -0.7011 -1.2681 0.9800
-4.8171 -0.8745 -1.2676 0.9800
-4.7801 -1.0466 -1.2670 0.9800
-4.7366 -1.2170 -1.2662 0.9800
-4.1903 -1.7486 -1.1756 0.9814
-3.8822 -1.7865 -1.1065 0.9825
-3.8112 -1.9227 -1.1053 0.9825
-3.7351 -2.0560 -1.1039 0.9825
-3.6541 -2.1862 -1.1025 0.9826
-3.5683 -2.3130 -1.1010 0.9826
-3.3830 -2.5558 -1.0978 0.9826
-2.5474 -2.0725 -0.8503 0.9865
-3.0729 -2.8909 -1.0924 0.9827
-2.8470 -3.0930 -1.0884 0.9828
-2.7287 -3.1873 -1.0864 0.9828
-2.6073 -3.2769 -1.0842 0.9828
-2.3555 -3.4417 -1.0799 0.9829
-2.2256 -3.5168 -1.0776 0.9830
-1.1189 -2.0860 -0.6129 0.9903
-1.4023 -3.8595 -1.0632 0.9832
-1.1161 -3.9317 -1.0582 0.9833
-0.8267 -3.9827 -1.0532 0.9833
-0.3903 -4.0192 -1.0455 0.9835
-0.1000 -4.0173 -1.0405 0.9835
0.0443 -4.0086 -1.0380 0.9836
0.1002 -2.1301 -0.5521 0.9912
0.2470 -2.0672 -0.5390 0.9914
1.0241 -3.8075 -1.0209 0.9838
1.5453 -3.5891 -1.0118 0.9840
1.7916 -3.4541 -1.0075 0.9841
1.9106 -3.3804 -1.0054 0.9841
2.0268 -3.3029 -1.0034 0.9841
1.5195 -2.1181 -0.6750 0.9893
2.4606 -2.9558 -0.9958 0.9842
2.5607 -2.8604 -0.9940 0.9843
2.7504 -2.6602 -0.9907 0.9843
3.0072 -2.3380 -0.9862 0.9844
3.1589 -2.1102 -0.9836 0.9844
3.2287 -1.9928 -0.9824 0.9844
3.2944 -1.8733 -0.9812 0.9845
3.9495 -1.7126 -1.1146 0.9824
4.0556 -1.4221 -1.1127 0.9824
1.6442 -0.4468 -0.4411 0.9930
1.6524 -0.3858 -0.4394 0.9930
2.0832 -0.2544 -0.5434 0.9914
4.2677 -0.3660 -1.1090 0.9825
1.3473 3.8698 -1.1600 0.9831
1.0702 3.9731 -1.1649 0.9830
0.7853 4.0570 -1.1698 0.9830
0.3463 4.1449 -1.1775 0.9829
0.0478 4.1775 -1.1827 0.9828
-0.1027 4.1858 -1.1853 0.9827
-0.2536 4.1887 -1.1880 0.9827
-0.8589 4.1456 -1.1985 0.9826
-1.0096 4.1211 -1.2012 0.9825
-1.3088 4.0555 -1.2064 0.9824
-1.4568 4.0144 -1.2090 0.9824
-1.6036 3.9678 -1.2115 0.9824
-1.7488 3.9158 -1.2141 0.9823
-2.4451 3.5754 -1.2262 0.9822
-2.5768 3.4917 -1.2285 0.9821
-2.7056 3.4030 -1.2308 0.9821
-1.1811 1.1949 -0.4756 0.9930
-1.2621 1.1054 -0.4750 0.9930
-1.3576 1.1054 -0.4956 0.9927
-1.4854 1.1231 -0.5272 0.9923
-3.9493 1.9942 -1.2525 0.9818
-4.0904 1.7087 -1.2549 0.9817
-4.1528 1.5619 -1.2560 0.9817
-4.3454 0.9531 -1.2594 0.9817
-4.4063 0.6390 -1.2604 0.9817
-4.4523 0.1610 -1.2613 0.9816
-4.4554 0.0008 -1.2613 0.9816
-4.4524 -0.1593 -1.2613 0.9816
-4.4432 -0.3192 -1.2611 0.9817
-4.4066 -0.6373 -1.2605 0.9817
-4.3792 -0.7950 -1.2600 0.9817
-4.3064 -1.1065 -1.2587 0.9817
-4.1534 -1.5604 -1.2560 0.9817
-3.7943 -1.7460 -1.1824 0.9828
-3.4887 -1.7600 -1.1062 0.9839
-3.3980 -1.8704 -1.0980 0.9840
-3.2470 -2.1047 -1.0954 0.9840
-3.1651 -2.2171 -1.0940 0.9841
-2.5470 -2.0722 -0.9295 0.9864
-2.7982 -2.6324 -1.0876 0.9842
-2.6974 -2.7268 -1.0858 0.9842
-2.5932 -2.8173 -1.0840 0.9842
-2.3758 -2.9859 -1.0802 0.9843
-1.1183 -2.0850 -0.6698 0.9902
-1.6621 -3.3857 -1.0677 0.9844
-1.5362 -3.4362 -1.0655 0.9845
-1.2799 -3.5228 -1.0611 0.9845
-1.1500 -3.5590 -1.0588 0.9846
-0.7552 -3.6382 -1.0519 0.9847
-0.6226 -3.6550 -1.0496 0.9847
-0.3568 -3.6740 -1.0450 0.9848
-0.2240 -3.6762 -1.0426 0.9848
-0.0915 -3.6737 -1.0403 0.9848
0.0406 -3.6665 -1.0380 0.9849
0.1716 -2.0635 -0.5862 0.9914
0.5607 -3.5912 -1.0289 0.9850
0.8138 -3.5264 -1.0245 0.9851
1.0605 -3.4443 -1.0202 0.9851
1.2999 -3.3454 -1.0160 0.9852
1.4165 -3.2899 -1.0140 0.9852
1.6428 -3.1673 -1.0101 0.9853
1.7523 -3.1003 -1.0081 0.9853
1.8591 -3.0297 -1.0063 0.9853
1.5202 -2.1191 -0.7383 0.9892
1.5945 -2.0619 -0.7379 0.9892
2.2584 -2.7130 -0.9993 0.9854
2.4398 -2.5357 -0.9961 0.9855
2.6869 -2.2485 -0.9918 0.9855
2.7623 -2.1476 -0.9905 0.9856
2.9023 -1.9388 -0.9881 0.9856
2.9667 -1.8311 -0.9870 0.9856
3.0890 -1.7565 -1.0060 0.9853
3.3418 -1.7443 -1.0672 0.9845
3.5744 -1.7052 -1.1211 0.9837
3.6816 -1.4415 -1.1193 0.9837
1.5849 -0.5557 -0.4755 0.9930
1.5906 -0.4943 -0.4715 0.9931
1.5998 -0.3735 -0.4651 0.9932
1.6057 -0.3145 -0.4632 0.9932
1.9807 -0.3145 -0.5678 0.9917
2.1287 -0.2600 -0.6071 0.9911
3.9244 -0.3366 -1.1150 0.9838
3.9334 -0.1953 -1.1149 0.9838
0.7235 3.7375 -1.1709 0.9842
0.4549 3.7949 -1.1756 0.9841
0.0440 3.8452 -1.1828 0.9840
-0.5118 3.8430 -1.1925 0.9839
-0.7898 3.8118 -1.1973 0.9838
-0.9282 3.7886 -1.1997 0.9838
-1.0659 3.7603 -1.2021 0.9838
-1.3386 3.6885 -1.2069 0.9837
-1.6063 3.5967 -1.2116 0.9837
-1.7379 3.5433 -1.2139 0.9836
-1.9953 3.4219 -1.2184 0.9836
-2.1208 3.3540 -1.2206 0.9835
-2.2440 3.2813 -1.2227 0.9835
-2.3646 3.2041 -1.2248 0.9835
-1.0499 1.3205 -0.5189 0.9930
-1.0880 1.1829 -0.4943 0.9933
-1.1741 1.1054 -0.4960 0.9933
-1.4620 1.1054 -0.5637 0.9924
-3.3895 2.1988 -1.2427 0.9832
-3.4703 2.0779 -1.2441 0.9832
-3.6849 1.6973 -1.2479 0.9832
-3.8036 1.4306 -1.2499 0.9831
-3.8554 1.2939 -1.2508 0.9831
-3.9432 1.0147 -1.2524 0.9831
-4.0347 0.5851 -1.2540 0.9831
-4.0542 0.4398 -1.2543 0.9831
-4.0766 0.1474 -1.2547 0.9831
-4.0767 -0.1459 -1.2547 0.9831
-4.0544 -0.4383 -1.2543 0.9831
-4.0349 -0.5836 -1.2540 0.9831
-3.9024 -1.1537 -1.2517 0.9831
-3.1895 -1.7557 -1.1198 0.9849
-2.9008 -2.0320 -1.0894 0.9853
-2.8224 -2.1323 -1.0880 0.9853
-2.3785 -2.5841 -1.0803 0.9854
-2.2805 -2.6637 -1.0785 0.9854
-2.1797 -2.7395 -1.0768 0.9855
-1.8625 -2.9430 -1.0712 0.9855
-1.5264 -3.1093 -1.0654 0.9856
-1.4110 -3.1562 -1.0634 0.9856
-1.2941 -3.1987 -1.0613 0.9857
-0.8158 -3.3248 -1.0530 0.9858
-0.6944 -3.3452 -1.0509 0.9858
-0.5725 -3.3612 -1.0487 0.9858
-0.4504 -3.3728 -1.0466 0.9859
-0.3282 -3.3799 -1.0445 0.9859
-0.0842 -3.3809 -1.0402 0.9859
0.0373 -3.3748 -1.0381 0.9860
0.1004 -2.1340 -0.6571 0.9911
0.1716 -2.0638 -0.6370 0.9914
0.2469 -2.0664 -0.6401 0.9913
0.5164 -3.3078 -1.0297 0.9861
0.7498 -3.2492 -1.0256 0.9861
0.8644 -3.2139 -1.0236 0.9862
0.9775 -3.1746 -1.0217 0.9862
1.0889 -3.1314 -1.0197 0.9862
1.1985 -3.0844 -1.0178 0.9862
1.3062 -3.0338 -1.0159 0.9863
1.4119 -2.9794 -1.0141 0.9863
1.6166 -2.8602 -1.0105 0.9863
1.8118 -2.7274 -1.0071 0.9864
1.5947 -2.0622 -0.8018 0.9891
2.1704 -2.4244 -1.0009 0.9865
2.2529 -2.3414 -0.9994 0.9865
2.3324 -2.2558 -0.9980 0.9865
2.4087 -2.1676 -0.9967 0.9865
2.4819 -2.0770 -0.9954 0.9865
2.6816 -1.7914 -0.9919 0.9866
3.0637 -1.7421 -1.0840 0.9854
3.2478 -1.6953 -1.1268 0.9848
3.3038 -1.5760 -1.1259 0.9848
3.4032 -1.3325 -1.1241 0.9848
1.5504 -0.4818 -0.4994 0.9932
1.5555 -0.4227 -0.4958 0.9933
1.5600 -0.3642 -0.4927 0.9933
1.6057 -0.3145 -0.5033 0.9932
1.9807 -0.3145 -0.6169 0.9916
3.6287 -0.3112 -1.1202 0.9849
3.6370 -0.1806 -1.1201 0.9849
1.0331 3.3506 -1.1655 0.9853
0.7925 3.4285 -1.1697 0.9853
0.6700 3.4611 -1.1718 0.9852
0.1682 3.5477 -1.1806 0.9851
0.0407 3.5582 -1.1828 0.9851
-0.0874 3.5640 -1.1851 0.9851
-0.2159 3.5653 -1.1873 0.9851
-0.3446 3.5620 -1.1896 0.9850
-0.7301 3.5240 -1.1963 0.9849
-0.9851 3.4753 -1.2007 0.9849
-1.1114 3.4440 -1.2029 0.9849
-1.2368 3.4080 -1.2051 0.9848
-1.6050 3.2724 -1.2116 0.9848
-1.8422 3.1594 -1.2157 0.9847
-2.0713 3.0288 -1.2197 0.9847
-0.9926 1.3451 -0.5557 0.9930
-1.0143 1.2757 -0.5418 0.9932
-1.0528 1.1447 -0.5170 0.9935
-1.0926 1.1054 -0.5166 0.9935
-1.1741 1.1054 -0.5360 0.9932
-1.2621 1.1054 -0.5577 0.9930
-1.3576 1.1054 -0.5819 0.9926
-1.4620 1.1054 -0.6092 0.9923
-1.5871 1.1126 -0.6443 0.9919
-3.1247 2.0270 -1.2381 0.9844
-3.1989 1.9154 -1.2394 0.9844
-3.2689 1.8010 -1.2406 0.9844
-3.3346 1.6838 -1.2417 0.9844
-3.3959 1.5642 -1.2428 0.9844
-3.5049 1.3182 -1.2447 0.9843
-3.5524 1.1922 -1.2455 0.9843
-3.5951 1.0643 -1.2463 0.9843
-3.6329 0.9349 -1.2469 0.9843
-3.6659 0.8041 -1.2475 0.9843
-3.7168 0.5390 -1.2484 0.9843
-3.7347 0.4051 -1.2487 0.9843
-3.7553 0.1358 -1.2491 0.9843
-3.7553 -0.1344 -1.2491 0.9843
-3.7170 -0.5376 -1.2484 0.9843
-3.6941 -0.6707 -1.2480 0.9843
-3.6662 -0.8027 -1.2475 0.9843
-1.4701 -0.4346 -0.5096 0.9936
-1.4773 -0.4952 -0.5179 0.9935
-3.3965 -1.5630 -1.2428 0.9844
-3.1624 -1.7408 -1.1999 0.9849
-2.9286 -1.7521 -1.1344 0.9857
-2.6744 -1.8734 -1.0854 0.9863
-2.6024 -1.9661 -1.0842 0.9863
-2.5269 -2.0559 -1.0828 0.9864
-2.3665 -2.2263 -1.0800 0.9864
-2.2819 -2.3068 -1.0786 0.9864
-2.1943 -2.3840 -1.0770 0.9864
-2.0114 -2.5279 -1.0738 0.9865
-1.9163 -2.5946 -1.0722 0.9865
-1.1965 -2.0502 -0.7890 0.9900
-1.1172 -2.0829 -0.7857 0.9901
-0.8657 -3.0499 -1.0538 0.9867
-0.6420 -3.0927 -1.0499 0.9868
-0.4165 -3.1191 -1.0460 0.9868
-0.3036 -3.1261 -1.0440 0.9868
-0.0779 -3.1280 -1.0401 0.9869
0.0345 -3.1229 -1.0381 0.9869
0.1005 -2.1360 -0.7108 0.9910
0.2469 -2.0660 -0.6916 0.9913
0.4782 -3.0627 -1.0304 0.9870
0.8007 -2.9771 -1.0248 0.9871
0.9056 -2.9411 -1.0229 0.9871
1.1107 -2.8584 -1.0193 0.9872
1.2106 -2.8118 -1.0176 0.9872
1.3087 -2.7618 -1.0159 0.9872
1.4048 -2.7085 -1.0142 0.9872
1.4989 -2.6519 -1.0126 0.9872
1.5907 -2.5922 -1.0110 0.9873
1.6803 -2.5294 -1.0094 0.9873
2.0138 -2.2495 -1.0036 0.9874
2.0905 -2.1727 -1.0022 0.9874
2.1645 -2.0935 -1.0010 0.9874
2.2356 -2.0118 -0.9997 0.9874
2.3037 -1.9278 -0.9985 0.9874
2.6201 -1.7503 -1.0474 0.9868
2.9600 -1.6831 -1.1319 0.9857
1.5083 -0.5289 -0.5313 0.9933
1.5117 -0.4698 -0.5262 0.9933
1.5170 -0.4122 -0.5225 0.9934
1.6057 -0.3145 -0.5439 0.9931
3.3789 -0.1678 -1.1246 0.9858
1.0710 3.0762 -1.1648 0.9863
0.9613 3.1178 -1.1668 0.9862
0.6232 3.2194 -1.1727 0.9862
0.5079 3.2453 -1.1747 0.9861
0.3916 3.2671 -1.1767 0.9861
0.1564 3.2983 -1.1808 0.9861
0.0378 3.3075 -1.1829 0.9860
-0.2006 3.3133 -1.1870 0.9860
-0.5591 3.2897 -1.1933 0.9859
-0.6782 3.2732 -1.1954 0.9859
-0.7968 3.2523 -1.1974 0.9859
-0.9147 3.2271 -1.1995 0.9859
-1.0319 3.1976 -1.2015 0.9858
-1.6002 2.9860 -1.2115 0.9857
-1.7091 2.9311 -1.2134 0.9857
-1.8162 2.8722 -1.2152 0.9857
-1.9212 2.8093 -1.2171 0.9856
-0.9635 1.3056 -0.5803 0.9931
-0.9806 1.2333 -0.5634 0.9933
-1.0007 1.1697 -0.5505 0.9935
-1.0194 1.1083 -0.5385 0.9936
-1.1741 1.1054 -0.5767 0.9932
-1.3576 1.1054 -0.6261 0.9926
-1.4620 1.1054 -0.6554 0.9922
-1.6135 1.1311 -0.7046 0.9917
-2.9636 1.7745 -1.2353 0.9854
-3.0282 1.6684 -1.2364 0.9854
-3.0889 1.5598 -1.2375 0.9854
-3.1979 1.3359 -1.2394 0.9854
-3.2899 1.1041 -1.2410 0.9854
-3.3293 0.9856 -1.2416 0.9854
-3.3642 0.8657 -1.2423 0.9854
-3.4416 0.4991 -1.2436 0.9853
-3.4581 0.3751 -1.2439 0.9853
-3.4771 -0.1244 -1.2442 0.9853
-3.4700 -0.2493 -1.2441 0.9853
-3.4582 -0.3738 -1.2439 0.9853
-1.5065 -0.3298 -0.5515 0.9935
-1.3037 -0.3350 -0.4814 0.9943
-1.2728 -0.3763 -0.4747 0.9944
-1.2390 -0.4153 -0.4673 0.9945
-1.2246 -0.4600 -0.4678 0.9945
-1.2127 -0.5061 -0.4699 0.9944
-2.2692 -1.9859 -1.0783 0.9873
-2.1153 -2.1385 -1.0757 0.9873
-2.0344 -2.2102 -1.0742 0.9873
-1.9510 -2.2788 -1.0728 0.9873
-1.8652 -2.3442 -1.0713 0.9874
-1.7772 -2.4063 -1.0698 0.9874
-1.6871 -2.4650 -1.0682 0.9874
-1.1963 -2.0498 -0.8487 0.9900
-1.0087 -2.7763 -1.0563 0.9875
-0.9067 -2.8061 -1.0546 0.9876
-0.4918 -2.8871 -1.0473 0.9876
-0.2821 -2.9048 -1.0437 0.9877
-0.0724 -2.9073 -1.0400 0.9877
0.0321 -2.9029 -1.0382 0.9877
0.2468 -2.0657 -0.7439 0.9912
0.4447 -2.8485 -1.0310 0.9878
0.5459 -2.8258 -1.0292 0.9878
0.6460 -2.7996 -1.0275 0.9879
0.7450 -2.7699 -1.0257 0.9879
0.8427 -2.7367 -1.0240 0.9879
1.0338 -2.6604 -1.0207 0.9879
1.1269 -2.6174 -1.0191 0.9880
1.3957 -2.4694 -1.0144 0.9880
1.4814 -2.4141 -1.0129 0.9880
1.5650 -2.3559 -1.0114 0.9881
1.5953 -2.0629 -0.9326 0.9890
1.8021 -2.1648 -1.0073 0.9881
1.8763 -2.0959 -1.0060 0.9881
2.0171 -1.9509 -1.0035 0.9881
2.4221 -1.7471 -1.0680 0.9874
2.6006 -1.7372 -1.1184 0.9868
2.7599 -1.5693 -1.1354 0.9866
2.8611 -1.3649 -1.1336 0.9866
1.4875 -0.5216 -0.5637 0.9933
1.4940 -0.4060 -0.5536 0.9934
1.4966 -0.3494 -0.5496 0.9935
2.1827 -0.2665 -0.7863 0.9907
1.0005 2.8737 -1.1661 0.9871
0.8979 2.9122 -1.1679 0.9870
0.5819 3.0061 -1.1734 0.9870
0.2561 3.0661 -1.1791 0.9869
-0.1872 3.0913 -1.1868 0.9868
-0.2987 3.0876 -1.1888 0.9868
-0.4102 3.0799 -1.1907 0.9868
-0.5215 3.0682 -1.1926 0.9868
-0.6324 3.0524 -1.1946 0.9867
-0.7429 3.0326 -1.1965 0.9867
-0.8528 3.0087 -1.1984 0.9867
-0.9620 2.9809 -1.2003 0.9867
-1.3878 2.8296 -1.2078 0.9866
-1.6918 2.6755 -1.2131 0.9865
-1.7894 2.6166 -1.2148 0.9865
-0.9436 1.2787 -0.6090 0.9932
-0.9572 1.2039 -0.5894 0.9934
-1.0926 1.1054 -0.5956 0.9934
-1.2621 1.1054 -0.6429 0.9928
-1.3576 1.1054 -0.6709 0.9925
-1.5768 1.1054 -0.7379 0.9918
-2.7575 1.6511 -1.2317 0.9863
-2.9262 1.3479 -1.2346 0.9863
-3.0194 1.1356 -1.2362 0.9863
-3.0601 1.0269 -1.2370 0.9863
-3.0966 0.9168 -1.2376 0.9863
-3.1290 0.8052 -1.2382 0.9863
-3.1811 0.5787 -1.2391 0.9862
-3.2007 0.4641 -1.2394 0.9862
-1.4365 -0.3145 -0.5635 0.9937
-1.2241 -0.3145 -0.4843 0.9946
-1.1782 -0.3949 -0.4762 0.9947
-1.1563 -0.4825 -0.4801 0.9946
-2.8743 -1.4500 -1.2337 0.9863
-2.7581 -1.6501 -1.2317 0.9863
-2.3213 -1.7538 -1.1149 0.9876
-2.1121 -1.8485 -1.0756 0.9880
-1.9693 -1.9908 -1.0731 0.9881
-1.7369 -2.1830 -1.0691 0.9881
-1.5713 -2.2959 -1.0662 0.9882
-1.4857 -2.3476 -1.0647 0.9882
-1.1961 -2.0495 -0.9094 0.9899
-1.1168 -2.0821 -0.9054 0.9899
-1.2190 -2.4830 -1.0600 0.9882
-1.1272 -2.5214 -1.0584 0.9882
-1.0343 -2.5564 -1.0568 0.9883
-0.5561 -2.6788 -1.0484 0.9883
-0.4587 -2.6927 -1.0467 0.9884
-0.3610 -2.7030 -1.0450 0.9884
-0.2631 -2.7098 -1.0433 0.9884
-0.1653 -2.7131 -1.0416 0.9884
0.1007 -2.1401 -0.8210 0.9909
0.1717 -2.0649 -0.7940 0.9912
0.2468 -2.0653 -0.7971 0.9911
0.7871 -2.5563 -1.0250 0.9886
0.8772 -2.5224 -1.0234 0.9886
1.0530 -2.4455 -1.0204 0.9887
1.1385 -2.4026 -1.0189 0.9887
1.2224 -2.3567 -1.0174 0.9887
1.3847 -2.2565 -1.0146 0.9887
1.4629 -2.2023 -1.0132 0.9887
1.5231 -2.1232 -1.0013 0.9889
1.6851 -2.0242 -1.0093 0.9888
1.7546 -1.9600 -1.0081 0.9888
1.8218 -1.8934 -1.0069 0.9888
1.8866 -1.8247 -1.0058 0.9888
1.9578 -1.7618 -1.0093 0.9888
2.2430 -1.7439 -1.0888 0.9879
2.4047 -1.7346 -1.1362 0.9874
2.4744 -1.6529 -1.1403 0.9873
2.5301 -1.5616 -1.1394 0.9873
2.6316 -1.3736 -1.1376 0.9874
2.6774 -1.2772 -1.1368 0.9874
2.7588 -1.0802 -1.1354 0.9874
1.4669 -0.5144 -0.5957 0.9934
1.4705 -0.4570 -0.5901 0.9934
1.4737 -0.4005 -0.5852 0.9935
2.1830 -0.2666 -0.8428 0.9906
2.9504 -0.1465 -1.1320 0.9874
0.9377 2.6932 -1.1672 0.9878
0.8415 2.7291 -1.1688 0.9877
0.7439 2.7616 -1.1706 0.9877
0.6451 2.7907 -1.1723 0.9877
0.0330 2.8902 -1.1830 0.9876
-0.1752 2.8940 -1.1866 0.9875
-0.3839 2.8827 -1.1902 0.9875
-0.6952 2.8375 -1.1957 0.9875
-0.8999 2.7886 -1.1992 0.9874
-1.0011 2.7585 -1.2010 0.9874
-1.2001 2.6871 -1.2045 0.9874
-1.2978 2.6460 -1.2062 0.9873
-1.3940 2.6013 -1.2079 0.9873
-0.9089 1.3291 -0.6590 0.9931
-0.9381 1.1799 -0.6169 0.9935
-1.0167 1.1054 -0.6147 0.9935
-1.0926 1.1054 -0.6361 0.9933
-1.4620 1.1054 -0.7501 0.9921
-1.6261 1.0549 -0.7933 0.9917
-2.5753 1.5420 -1.2285 0.9871
-2.6311 1.4496 -1.2295 0.9871
-2.7324 1.2586 -1.2312 0.9871
-2.9474 0.6465 -1.2350 0.9870
-2.9697 0.5403 -1.2354 0.9870
-3.0022 0.3257 -1.2359 0.9870
-3.0125 -0.2164 -1.2361 0.9870
-2.9881 -0.4322 -1.2357 0.9870
-1.6084 -0.2920 -0.6690 0.9930
-1.4365 -0.3145 -0.6018 0.9937
-1.1343 -0.3354 -0.4841 0.9949
-1.1253 -0.3772 -0.4857 0.9949
-1.1040 -0.4607 -0.4896 0.9948
-1.0918 -0.5024 -0.4919 0.9948
-2.4542 -1.7192 -1.2264 0.9871
-2.3048 -1.7413 -1.1822 0.9876
-2.0076 -1.7570 -1.0919 0.9885
-1.9078 -1.7948 -1.0720 0.9887
-1.8400 -1.8602 -1.0709 0.9888
-1.6977 -1.9829 -1.0684 0.9888
-1.6233 -2.0402 -1.0671 0.9888
-1.5470 -2.0946 -1.0657 0.9888
-1.3889 -2.1946 -1.0630 0.9888
-1.1166 -2.0817 -0.9668 0.9898
-0.9673 -2.3910 -1.0556 0.9889
-0.8795 -2.4207 -1.0541 0.9889
-0.7907 -2.4471 -1.0525 0.9889
-0.7012 -2.4703 -1.0510 0.9890
-0.3379 -2.5299 -1.0446 0.9890
-0.2463 -2.5366 -1.0430 0.9890
-0.1547 -2.5399 -1.0414 0.9891
-0.0632 -2.5399 -1.0398 0.9891
0.3890 -2.4912 -1.0319 0.9892
0.4775 -2.4719 -1.0304 0.9892
0.7376 -2.3955 -1.0259 0.9892
0.8221 -2.3641 -1.0244 0.9892
0.9053 -2.3297 -1.0229 0.9893
0.9870 -2.2924 -1.0215 0.9893
1.1461 -2.2096 -1.0187 0.9893
1.2231 -2.1641 -1.0174 0.9893
1.6460 -1.8387 -1.0100 0.9894
2.0798 -1.7405 -1.1099 0.9883
2.4702 -1.2894 -1.1404 0.9880
2.5133 -1.1990 -1.1397 0.9880
1.4466 -0.5072 -0.6274 0.9934
1.4536 -0.3950 -0.6165 0.9935
1.6057 -0.3145 -0.6697 0.9930
1.9807 -0.3145 -0.8208 0.9914
2.7702 -0.1375 -1.1352 0.9881
0.8813 2.5314 -1.1682 0.9884
0.7908 2.5649 -1.1697 0.9884
0.6990 2.5952 -1.1713 0.9883
0.6061 2.6223 -1.1730 0.9883
0.5122 2.6460 -1.1746 0.9883
0.4173 2.6665 -1.1763 0.9883
0.3217 2.6836 -1.1779 0.9883
0.2253 2.6973 -1.1796 0.9883
0.1284 2.7075 -1.1813 0.9882
0.0310 2.7143 -1.1830 0.9882
-0.0667 2.7175 -1.1847 0.9882
-0.4581 2.6954 -1.1915 0.9881
-0.5555 2.6810 -1.1932 0.9881
-0.6524 2.6631 -1.1949 0.9881
-0.7488 2.6416 -1.1966 0.9881
-0.9392 2.5881 -1.1999 0.9881
-1.0331 2.5562 -1.2016 0.9880
-1.2173 2.4820 -1.2048 0.9880
-1.4831 2.3455 -1.2094 0.9880
-0.8896 1.3009 -0.6868 0.9931
-0.9052 1.2266 -0.6644 0.9934
-0.9457 1.1054 -0.6340 0.9937
-1.0167 1.1054 -0.6545 0.9935
-1.0926 1.1054 -0.6774 0.9932
-1.2621 1.1054 -0.7312 0.9927
-1.4620 1.1054 -0.7988 0.9920
-1.5768 1.1054 -0.8392 0.9916
-2.4128 1.4447 -1.2257 0.9878
-2.5140 1.2695 -1.2274 0.9878
-2.5597 1.1791 -1.2282 0.9878
-2.7606 0.6055 -1.2317 0.9877
-2.7814 0.5060 -1.2321 0.9877
-2.7985 0.4058 -1.2324 0.9877
-2.8213 0.2038 -1.2328 0.9877
-2.8271 0.1022 -1.2329 0.9877
-2.8290 0.0005 -1.2329 0.9877
-2.8214 -0.2027 -1.2328 0.9877
-1.4365 -0.3145 -0.6409 0.9936
-1.2241 -0.3145 -0.5508 0.9945
-1.0879 -0.3216 -0.4944 0.9951
-1.0828 -0.3629 -0.4977 0.9950
-1.0634 -0.4893 -0.5102 0.9949
-2.4656 -1.3572 -1.2266 0.9878
-2.4134 -1.4439 -1.2257 0.9878
-2.3581 -1.5285 -1.2247 0.9878
-2.2997 -1.6109 -1.2237 0.9878
-2.2383 -1.6911 -1.2226 0.9878
-1.8627 -1.7524 -1.1146 0.9889
-1.7397 -1.7587 -1.0781 0.9893
-1.5915 -1.8589 -1.0665 0.9894
-1.3773 -2.0124 -1.0628 0.9894
-1.3025 -2.0581 -1.0615 0.9894
-1.1956 -2.0487 -1.0338 0.9897
-1.1164 -2.0814 -1.0293 0.9897
-1.0692 -2.1779 -1.0574 0.9895
-0.9889 -2.2120 -1.0560 0.9895
-0.9075 -2.2431 -1.0546 0.9895
-0.8252 -2.2712 -1.0531 0.9895
-0.7420 -2.2962 -1.0517 0.9895
-0.6580 -2.3182 -1.0502 0.9895
-0.5735 -2.3371 -1.0487 0.9896
-0.4884 -2.3528 -1.0473 0.9896
-0.4029 -2.3655 -1.0458 0.9896
-0.3172 -2.3750 -1.0443 0.9896
-0.1453 -2.3848 -1.0413 0.9896
0.0264 -2.3822 -1.0383 0.9897
0.1009 -2.1444 -0.9356 0.9907
0.2467 -2.0644 -0.9061 0.9910
0.4487 -2.3225 -1.0309 0.9897
0.5311 -2.3017 -1.0295 0.9897
0.6127 -2.2779 -1.0280 0.9898
0.6932 -2.2513 -1.0266 0.9898
0.7727 -2.2220 -1.0252 0.9898
0.8509 -2.1898 -1.0239 0.9898
0.9279 -2.1550 -1.0225 0.9898
1.0034 -2.1175 -1.0212 0.9898
1.0775 -2.0774 -1.0199 0.9898
1.4232 -1.8403 -1.0139 0.9899
1.8036 -1.7444 -1.0935 0.9891
1.9301 -1.7369 -1.1316 0.9887
2.0206 -1.6909 -1.1483 0.9886
2.0782 -1.6158 -1.1473 0.9886
2.1854 -1.4599 -1.1454 0.9886
2.3249 -1.2135 -1.1430 0.9886
2.3656 -1.1285 -1.1422 0.9886
2.4032 -1.0421 -1.1416 0.9886
1.4312 -0.5019 -0.6610 0.9934
1.4366 -0.3354 -0.6429 0.9936
2.5926 -0.3166 -1.1383 0.9887
2.6019 -0.2232 -1.1381 0.9887
0.8304 2.3851 -1.1690 0.9889
0.7451 2.4165 -1.1705 0.9889
0.6586 2.4449 -1.1720 0.9889
0.4825 2.4924 -1.1751 0.9889
0.2122 2.5400 -1.1798 0.9888
0.0292 2.5556 -1.1830 0.9888
-0.2471 2.5543 -1.1878 0.9888
-0.3392 2.5472 -1.1895 0.9887
-0.7945 2.4618 -1.1974 0.9887
-0.9718 2.4046 -1.2005 0.9886
-1.0590 2.3711 -1.2020 0.9886
-1.3946 2.2055 -1.2079 0.9886
-0.8813 1.2888 -0.7227 0.9931
-0.8880 1.2032 -0.6922 0.9934
-0.9011 1.1334 -0.6703 0.9936
-0.9457 1.1054 -0.6734 0.9936
-1.0167 1.1054 -0.6952 0.9934
-1.1741 1.1054 -0.7464 0.9929
-1.2621 1.1054 -0.7766 0.9926
-1.3576 1.1054 -0.8104 0.9923
-2.3160 1.2760 -1.2240 0.9884
-2.4047 1.1077 -1.2255 0.9884
-2.4443 1.0211 -1.2262 0.9884
-2.5139 0.8436 -1.2274 0.9884
-2.5437 0.7531 -1.2279 0.9884
-2.5930 0.5687 -1.2288 0.9884
-2.6553 0.0960 -1.2299 0.9884
-2.6500 -0.1904 -1.2298 0.9884
-2.6286 -0.3802 -1.2294 0.9884
-1.6218 -0.2944 -0.7630 0.9928
-1.0359 -0.4767 -0.5278 0.9950
-1.0280 -0.5186 -0.5330 0.9949
-2.3165 -1.2751 -1.2240 0.9884
-2.2675 -1.3566 -1.2231 0.9884
-2.2157 -1.4362 -1.2222 0.9884
-2.1034 -1.5891 -1.2203 0.9884
-2.0431 -1.6623 -1.2192 0.9885
-1.9803 -1.7331 -1.2181 0.9885
-1.8506 -1.7409 -1.1761 0.9889
-1.7287 -1.7476 -1.1378 0.9892
-1.4308 -1.7982 -1.0637 0.9899
-1.3637 -1.8465 -1.0625 0.9899
-1.2950 -1.8922 -1.0613 0.9899
-1.0056 -2.0484 -1.0563 0.9900
-0.8537 -2.1101 -1.0536 0.9900
-0.6981 -2.1604 -1.0509 0.9900
-0.6192 -2.1812 -1.0495 0.9901
-0.4596 -2.2142 -1.0468 0.9901
-0.3792 -2.2263 -1.0454 0.9901
-0.2177 -2.2417 -1.0425 0.9901
-0.1368 -2.2450 -1.0411 0.9901
-0.0559 -2.2455 -1.0397 0.9901
0.1010 -2.1466 -0.9947 0.9906
0.2466 -2.0640 -0.9622 0.9909
0.3442 -2.2044 -1.0327 0.9902
0.4226 -2.1877 -1.0314 0.9902
0.5003 -2.1682 -1.0300 0.9902
0.5772 -2.1460 -1.0287 0.9903
0.6531 -2.1211 -1.0273 0.9903
0.8018 -2.0635 -1.0247 0.9903
0.9457 -1.9957 -1.0222 0.9903
1.1510 -1.8756 -1.0186 0.9903
1.3594 -1.7579 -1.0286 0.9903
1.6745 -1.7403 -1.1179 0.9894
1.7894 -1.7307 -1.1523 0.9891
1.9057 -1.5948 -1.1503 0.9891
1.9602 -1.5240 -1.1493 0.9891
2.0121 -1.4514 -1.1484 0.9891
2.1521 -1.2237 -1.1460 0.9891
2.1933 -1.1449 -1.1453 0.9892
2.2318 -1.0647 -1.1446 0.9892
1.4229 -0.5571 -0.7073 0.9933
1.4258 -0.4431 -0.6911 0.9934
1.4270 -0.3878 -0.6845 0.9935
1.4280 -0.3334 -0.6788 0.9936
1.6057 -0.3145 -0.7574 0.9928
1.9807 -0.3145 -0.9283 0.9912
2.4464 -0.2988 -1.1408 0.9892
2.4553 -0.2106 -1.1407 0.9892
2.4610 -0.1222 -1.1406 0.9892
0.7842 2.2523 -1.1698 0.9894
0.6218 2.3084 -1.1727 0.9894
0.2859 2.3856 -1.1785 0.9894
0.2003 2.3973 -1.1800 0.9893
0.1141 2.4060 -1.1815 0.9893
0.0276 2.4117 -1.1831 0.9893
-0.0592 2.4142 -1.1846 0.9893
-0.1462 2.4136 -1.1861 0.9893
-0.2331 2.4099 -1.1876 0.9893
-0.3200 2.4030 -1.1891 0.9893
-0.4067 2.3930 -1.1906 0.9892
-0.4931 2.3798 -1.1921 0.9892
-0.5790 2.3635 -1.1936 0.9892
-0.6645 2.3441 -1.1951 0.9892
-0.7492 2.3216 -1.1966 0.9892
-0.8332 2.2959 -1.1981 0.9892
-0.9163 2.2672 -1.1995 0.9892
