ply
format ascii 1.0
element vertex 1591
property float32 x
property float32 y
property float32 z
property float32 I
end_header
-13.3403 -21.0516 -1.2639 0.9050
-12.4162 -21.2419 -1.2478 0.9062
-2.5085 -4.6683 -0.2688 0.9790
-8.7805 -21.6395 -1.1843 0.9107
-7.8943 -21.6540 -1.1689 0.9118
-7.0197 -21.6368 -1.1536 0.9129
-6.1578 -21.5895 -1.1386 0.9140
-4.4759 -21.4087 -1.1092 0.9161
-3.6575 -21.2778 -1.0949 0.9172
0.2072 -4.6002 -0.2335 0.9817
2.2770 -19.4142 -0.9913 0.9247
2.9373 -19.0955 -0.9798 0.9255
5.3912 -17.6713 -0.9370 0.9287
1.5903 -4.6129 -0.2474 0.9806
7.5470 -16.0473 -0.8993 0.9314
8.0886 -15.7099 -0.8961 0.9317
8.8116 -15.7033 -0.9132 0.9304
3.0402 -4.6092 -0.2800 0.9781
1.5834 -2.0621 -0.1318 0.9896
13.0348 0.2897 -0.9560 0.9491
12.9909 1.2243 -0.9567 0.9490
12.8927 2.1562 -0.9585 0.9489
12.7403 3.0834 -0.9611 0.9488
12.6436 3.5446 -0.9628 0.9487
12.5334 4.0038 -0.9647 0.9486
12.4095 4.4607 -0.9669 0.9485
12.2719 4.9150 -0.9693 0.9484
11.5846 6.7013 -0.9813 0.9477
11.3784 7.1386 -0.9849 0.9476
10.9245 7.9997 -0.9928 0.9471
10.6663 8.4145 -0.9961 0.9470
8.3181 8.7626 -0.8859 0.9527
7.4536 9.7690 -0.9010 0.9519
0.9194 1.2991 -0.1167 0.9936
0.7242 1.4172 -0.1167 0.9936
4.6239 12.1086 -0.9504 0.9493
4.2179 12.3581 -0.9574 0.9490
3.8007 12.5965 -0.9647 0.9486
2.4835 13.2401 -0.9877 0.9474
2.0234 13.4290 -0.9958 0.9470
1.5531 13.6041 -1.0040 0.9466
1.0731 13.7650 -1.0123 0.9461
-0.9377 14.2546 -1.0474 0.9443
-1.4610 14.3358 -1.0566 0.9438
-2.5287 14.4445 -1.0752 0.9429
-4.1742 14.4657 -1.1039 0.9414
-5.8554 14.3041 -1.1333 0.9399
-6.4200 14.2073 -1.1431 0.9394
-7.5499 13.9471 -1.1629 0.9384
-5.8914 7.3525 -0.6908 0.9629
-5.9087 6.8550 -0.6636 0.9644
-5.9530 6.4252 -0.6422 0.9655
-7.8745 6.3683 -0.7426 0.9602
-9.8323 6.3358 -0.8576 0.9542
-15.1952 9.0373 -1.2963 0.9315
-15.9695 8.7382 -1.3347 0.9296
-18.6627 8.5350 -1.5047 0.9210
-19.1132 7.9250 -1.5171 0.9204
-19.4632 7.2636 -1.5232 0.9201
-20.5561 4.4609 -1.5423 0.9191
-20.7477 3.7288 -1.5456 0.9189
-21.1840 -0.0326 -1.5533 0.9185
-21.1646 -0.7922 -1.5529 0.9186
-21.1095 -1.5498 -1.5520 0.9186
-13.8991 -2.0300 -1.0299 0.9452
-18.1960 -3.3281 -1.3563 0.9285
-8.1623 -2.1072 -0.6181 0.9668
-20.0495 -5.9507 -1.5335 0.9195
-18.7010 -8.6222 -1.5099 0.9207
-4.0930 -2.0682 -0.3362 0.9818
-17.4012 -10.4220 -1.4872 0.9219
-16.9202 -10.9771 -1.4788 0.9223
-6.7120 -4.7049 -0.6010 0.9677
-13.6354 -13.7817 -1.4215 0.9252
-13.0356 -14.1568 -1.4110 0.9257
-3.9559 -4.6182 -0.4459 0.9759
-11.8047 -14.8256 -1.3895 0.9268
-11.1765 -15.1192 -1.3786 0.9274
-1.2001 -2.0531 -0.1744 0.9905
-7.7184 -15.6884 -1.2820 0.9323
-7.0320 -15.6902 -1.2607 0.9334
-6.3670 -15.6915 -1.2416 0.9343
-5.7210 -15.6926 -1.2247 0.9352
-5.0914 -15.6933 -1.2097 0.9360
-4.4762 -15.6938 -1.1966 0.9366
-1.1407 -4.6217 -0.3490 0.9811
-2.6976 -15.6934 -1.1676 0.9381
-2.1212 -15.6927 -1.1611 0.9385
-0.9837 -15.6906 -1.1527 0.9389
0.1433 -15.6874 -1.1503 0.9390
0.0957 -2.1245 -0.1559 0.9915
2.3637 -15.3668 -1.1400 0.9395
2.8954 -15.1780 -1.1330 0.9399
5.3468 -13.8735 -1.0902 0.9421
5.7987 -13.5739 -1.0823 0.9425
6.2374 -13.2626 -1.0746 0.9429
1.5103 -2.1201 -0.1909 0.9896
1.5836 -2.0624 -0.1907 0.9896
10.4161 0.6058 -1.0017 0.9589
10.3098 1.7243 -1.0035 0.9589
10.2517 2.0950 -1.0046 0.9588
10.1014 2.8319 -1.0072 0.9587
10.0093 3.1974 -1.0088 0.9587
9.9059 3.5607 -1.0106 0.9586
9.7912 3.9215 -1.0126 0.9585
9.6652 4.2794 -1.0148 0.9584
9.5279 4.6342 -1.0172 0.9583
9.3794 4.9856 -1.0198 0.9582
9.2197 5.3333 -1.0226 0.9581
9.0488 5.6771 -1.0255 0.9580
8.8668 6.0165 -1.0287 0.9579
8.4694 6.6814 -1.0357 0.9576
8.2542 7.0062 -1.0394 0.9574
8.0280 7.3254 -1.0434 0.9573
7.7909 7.6388 -1.0475 0.9571
7.5429 7.9460 -1.0518 0.9569
7.2842 8.2467 -1.0563 0.9567
0.8486 1.2952 -0.1487 0.9938
4.2166 9.0379 -0.9575 0.9607
2.9475 9.7689 -0.9796 0.9598
2.2668 10.0758 -0.9915 0.9593
1.9157 10.2133 -0.9976 0.9591
1.5579 10.3398 -1.0039 0.9589
-0.3219 10.7935 -1.0367 0.9575
-0.7135 10.8461 -1.0435 0.9573
-1.1093 10.8851 -1.0504 0.9570
-1.5090 10.9103 -1.0574 0.9567
-1.9119 10.9213 -1.0644 0.9564
-2.7258 10.8997 -1.0786 0.9559
-3.0538 9.3150 -0.9411 0.9614
-3.9581 10.7541 -1.1002 0.9550
-4.3696 10.6745 -1.1073 0.9547
-5.1898 10.4674 -1.1217 0.9541
-6.0017 10.1957 -1.1358 0.9536
-6.4027 10.0353 -1.1428 0.9533
-6.7994 9.8586 -1.1498 0.9530
-5.9054 7.9373 -0.9498 0.9610
-5.9273 6.3975 -0.8373 0.9656
-6.3333 6.3619 -0.8618 0.9646
-7.3872 6.4258 -0.9400 0.9614
-7.9569 6.4349 -0.9824 0.9597
-12.5574 7.4685 -1.4027 0.9430
-12.8665 7.0403 -1.4081 0.9428
-13.6859 5.6747 -1.4224 0.9422
-13.9206 5.1951 -1.4265 0.9420
-14.1349 4.7048 -1.4302 0.9419
-14.3283 4.2047 -1.4336 0.9418
-14.7774 2.6558 -1.4414 0.9415
-15.0559 0.5171 -1.4463 0.9413
-15.0667 -0.0232 -1.4465 0.9413
-15.0539 -0.5634 -1.4463 0.9413
-14.9573 -1.6392 -1.4446 0.9413
-9.5672 -2.1070 -0.9405 0.9614
-5.4306 -2.0457 -0.5571 0.9770
-4.1006 -2.0721 -0.4411 0.9817
-12.5301 -7.5046 -1.4022 0.9430
-2.5500 -2.0753 -0.3156 0.9869
-2.5176 -2.2036 -0.3212 0.9866
-9.9414 -10.0481 -1.3570 0.9448
-3.9553 -4.6174 -0.5837 0.9759
-7.3099 -11.5353 -1.3111 0.9466
-1.1236 -2.0909 -0.2279 0.9905
-5.4467 -12.1530 -1.2786 0.9479
-4.5027 -12.3509 -1.2621 0.9485
-4.0304 -12.4228 -1.2538 0.9489
-3.5587 -12.4768 -1.2456 0.9492
-1.1405 -4.6210 -0.4570 0.9811
-2.6203 -12.5329 -1.2292 0.9499
-2.1547 -12.5354 -1.2211 0.9502
-1.6925 -12.5213 -1.2130 0.9505
-0.7802 -12.4449 -1.1971 0.9511
-0.3312 -12.3832 -1.1893 0.9514
0.1124 -12.3065 -1.1815 0.9517
0.0958 -2.1263 -0.2043 0.9915
2.2338 -11.7101 -1.1445 0.9532
3.4160 -11.1969 -1.1239 0.9540
4.8695 -10.3542 -1.0985 0.9551
5.5396 -9.8722 -1.0868 0.9555
5.8598 -9.6175 -1.0812 0.9558
3.0386 -4.6067 -0.5298 0.9781
1.5109 -2.1210 -0.2500 0.9896
1.5839 -2.0627 -0.2497 0.9896
7.0384 -8.5155 -1.0606 0.9566
8.6861 -0.1186 -1.0319 0.9656
8.6849 0.1930 -1.0319 0.9656
8.6740 0.5045 -1.0321 0.9656
8.6533 0.8155 -1.0324 0.9656
8.5330 1.7438 -1.0345 0.9655
8.4735 2.0508 -1.0356 0.9655
8.2369 2.9608 -1.0397 0.9654
8.1388 3.2597 -1.0414 0.9653
8.0311 3.5559 -1.0433 0.9652
1.7569 0.8545 -0.2321 0.9922
1.7041 0.9058 -0.2292 0.9923
1.6382 0.9476 -0.2248 0.9924
1.5531 0.9744 -0.2178 0.9926
1.4520 0.9852 -0.2084 0.9930
7.1865 5.2624 -1.0581 0.9648
7.0131 5.5326 -1.0611 0.9647
6.6391 6.0581 -1.0676 0.9644
6.4386 6.3129 -1.0711 0.9643
6.2292 6.5621 -1.0748 0.9642
1.0582 1.1981 -0.1899 0.9936
0.9233 1.2101 -0.1808 0.9939
0.8371 1.2776 -0.1814 0.9939
0.7987 1.3200 -0.1833 0.9938
0.7639 1.3712 -0.1864 0.9937
0.7279 1.4245 -0.1900 0.9936
3.6560 8.6315 -1.1135 0.9629
3.3291 8.7177 -1.1085 0.9631
2.9767 8.7214 -1.0947 0.9636
1.6381 8.7330 -1.0555 0.9648
1.3161 8.7352 -1.0493 0.9650
0.6813 8.7387 -1.0412 0.9653
0.3667 8.7401 -1.0391 0.9654
0.0529 8.7413 -1.0384 0.9654
-0.5756 8.7487 -1.0415 0.9653
-1.2136 8.7749 -1.0523 0.9649
-1.8592 8.7581 -1.0635 0.9646
-2.1875 8.7472 -1.0710 0.9643
-2.5229 8.7432 -1.0809 0.9640
-2.8655 8.7407 -1.0926 0.9636
-3.2166 8.7393 -1.1062 0.9632
-4.7261 8.7307 -1.1793 0.9608
-5.1375 8.7276 -1.2030 0.9600
-6.4779 8.7068 -1.2891 0.9572
-7.5227 8.1194 -1.3148 0.9564
-8.4546 7.3543 -1.3311 0.9559
-9.0273 6.7799 -1.3411 0.9555
-9.2972 6.4744 -1.3458 0.9554
-9.8010 5.8291 -1.3546 0.9551
-10.2530 5.1413 -1.3625 0.9548
-10.6489 4.4154 -1.3694 0.9546
-10.9849 3.6563 -1.3752 0.9544
-11.1293 3.2660 -1.3778 0.9544
-11.3693 2.4672 -1.3819 0.9542
-11.4642 2.0604 -1.3836 0.9542
-11.5420 1.6495 -1.3850 0.9541
-11.6458 0.8190 -1.3868 0.9541
-11.6714 0.4009 -1.3872 0.9540
-11.6795 -0.0180 -1.3874 0.9540
-11.5360 -1.6849 -1.3849 0.9541
-8.1563 -2.1056 -1.0006 0.9666
-9.6294 -3.2381 -1.2068 0.9599
-5.4294 -2.0453 -0.6892 0.9769
-5.3497 -2.2375 -0.6888 0.9769
-4.1083 -2.0760 -0.5468 0.9816
-9.5336 -6.1850 -1.3499 0.9553
-6.7070 -4.7013 -0.9729 0.9675
-9.0036 -6.8055 -1.3407 0.9556
-7.8151 -7.8989 -1.3199 0.9562
-3.9547 -4.6167 -0.7221 0.9758
-6.8314 -8.5796 -1.3027 0.9568
-1.1230 -2.0899 -0.2818 0.9905
-4.3353 -9.6732 -1.2592 0.9582
-3.9652 -9.7721 -1.2527 0.9584
-3.5934 -9.8567 -1.2462 0.9586
-3.2207 -9.9271 -1.2397 0.9588
-1.7309 -10.0699 -1.2137 0.9597
-1.3614 -10.0717 -1.2073 0.9599
-0.9940 -10.0603 -1.2008 0.9601
-0.6292 -10.0360 -1.1945 0.9603
-0.2674 -9.9990 -1.1882 0.9605
0.2425 -2.0674 -0.2473 0.9917
1.4816 -9.6322 -1.1576 0.9615
1.8169 -9.5245 -1.1518 0.9617
0.8104 -3.5513 -0.4327 0.9854
2.4703 -9.2770 -1.1404 0.9621
2.7878 -9.1378 -1.1348 0.9622
3.4031 -8.8301 -1.1241 0.9626
3.7005 -8.6622 -1.1189 0.9628
3.9906 -8.4853 -1.1138 0.9629
4.2733 -8.2998 -1.1089 0.9631
4.5485 -8.1059 -1.1041 0.9633
1.5116 -2.1219 -0.3095 0.9896
7.4360 -0.1015 -1.0537 0.9704
7.4350 0.1652 -1.0537 0.9704
7.4254 0.4319 -1.0539 0.9704
7.3458 1.2285 -1.0553 0.9704
7.1898 2.0156 -1.0580 0.9703
6.9582 2.7868 -1.0620 0.9702
6.6519 3.5358 -1.0674 0.9700
6.5335 3.7794 -1.0695 0.9700
6.2724 4.2561 -1.0740 0.9698
4.9171 5.9865 -1.0977 0.9692
4.5047 6.3650 -1.1049 0.9690
4.2881 6.5448 -1.1086 0.9689
4.0649 6.7179 -1.1125 0.9688
3.5989 7.0431 -1.1207 0.9686
3.3567 7.1947 -1.1249 0.9684
3.1084 7.3387 -1.1292 0.9683
2.5948 7.6025 -1.1382 0.9681
2.0599 7.8326 -1.1475 0.9678
1.7851 7.9345 -1.1523 0.9677
1.5057 8.0273 -1.1572 0.9675
1.2220 8.1107 -1.1622 0.9674
0.9344 8.1845 -1.1672 0.9673
0.6430 8.2485 -1.1723 0.9671
-0.5518 8.3880 -1.1911 0.9666
-0.8559 8.3988 -1.1962 0.9665
-1.4690 8.3912 -1.2070 0.9662
-2.0865 8.3436 -1.2186 0.9659
-2.7059 8.2539 -1.2307 0.9655
-3.0133 8.1870 -1.2361 0.9654
-3.3193 8.1086 -1.2414 0.9652
-3.9251 7.9166 -1.2520 0.9649
-4.5197 7.6780 -1.2624 0.9646
-5.6589 7.0624 -1.2823 0.9641
-5.9304 6.8802 -1.2870 0.9640
-6.4538 6.4831 -1.2961 0.9637
-7.4086 5.5642 -1.3128 0.9633
-7.6253 5.3102 -1.3166 0.9632
-7.8323 5.0471 -1.3202 0.9631
-8.0291 4.7753 -1.3236 0.9630
-8.3906 4.2074 -1.3300 0.9628
-8.5545 3.9122 -1.3328 0.9627
-8.8466 3.3015 -1.3379 0.9626
-8.9742 2.9871 -1.3401 0.9625
-9.0892 2.6673 -1.3421 0.9625
-9.1912 2.3427 -1.3439 0.9624
-9.2800 2.0138 -1.3455 0.9624
-9.3554 1.6814 -1.3468 0.9623
-9.4653 1.0079 -1.3487 0.9623
-9.4971 -0.6972 -1.3493 0.9623
-9.4617 -1.0369 -1.3486 0.9623
-9.4124 -1.3747 -1.3478 0.9623
-9.3494 -1.7100 -1.3467 0.9623
-8.1383 -1.7923 -1.1807 0.9669
-7.9689 -2.3652 -1.1778 0.9670
-7.8670 -2.6454 -1.1760 0.9670
-5.4282 -2.0448 -0.8219 0.9768
-7.4959 -3.4560 -1.1695 0.9672
-7.3512 -3.7146 -1.1670 0.9673
-3.5640 -2.1345 -0.5886 0.9834
-6.8588 -4.4497 -1.1584 0.9675
-6.4855 -4.9022 -1.1519 0.9677
-2.5492 -2.0746 -0.4657 0.9868
-2.4371 -2.1332 -0.4589 0.9870
-6.6836 -6.2873 -1.3002 0.9636
-3.9540 -4.6159 -0.8612 0.9757
-5.6354 -7.0775 -1.2819 0.9641
-5.3576 -7.2475 -1.2770 0.9642
-4.7866 -7.5535 -1.2670 0.9645
-1.1225 -2.0889 -0.3360 0.9905
-3.8993 -7.9258 -1.2516 0.9649
-2.9870 -8.1932 -1.2356 0.9654
-1.1402 -4.6196 -0.6742 0.9810
-1.7536 -8.3874 -1.2141 0.9660
-1.4452 -8.4075 -1.2087 0.9661
-1.1376 -8.4164 -1.2034 0.9663
-0.8314 -8.4142 -1.1980 0.9664
-0.5267 -8.4011 -1.1927 0.9666
-0.2241 -8.3773 -1.1874 0.9667
0.0762 -8.3430 -1.1822 0.9669
1.2465 -8.1039 -1.1617 0.9674
2.3528 -7.7120 -1.1424 0.9680
1.5912 -4.6156 -0.6918 0.9805
3.1299 -7.3266 -1.1289 0.9683
3.3777 -7.1820 -1.1245 0.9684
3.6195 -7.0298 -1.1203 0.9686
4.0843 -6.7033 -1.1122 0.9688
3.0370 -4.6043 -0.7815 0.9780
1.5122 -2.1229 -0.3693 0.9895
1.5844 -2.0633 -0.3686 0.9895
4.9342 -5.9697 -1.0974 0.9692
6.4943 0.1443 -1.0701 0.9740
6.4699 0.6097 -1.0706 0.9740
6.4463 0.8417 -1.0710 0.9740
6.4152 1.0729 -1.0715 0.9740
6.2770 1.7597 -1.0739 0.9739
6.0718 2.4318 -1.0775 0.9738
5.8984 2.8689 -1.0805 0.9738
5.8008 3.0834 -1.0822 0.9737
5.5843 3.5035 -1.0860 0.9736
5.2071 4.1078 -1.0926 0.9735
5.0677 4.3015 -1.0950 0.9734
4.9216 4.4909 -1.0976 0.9734
4.2725 5.2017 -1.1089 0.9731
3.7211 5.6793 -1.1185 0.9729
3.5257 5.8269 -1.1220 0.9728
3.3248 5.9681 -1.1255 0.9727
2.6907 6.3526 -1.1365 0.9724
2.4695 6.4669 -1.1404 0.9723
2.2437 6.5740 -1.1443 0.9722
1.7792 6.7655 -1.1524 0.9720
1.5410 6.8496 -1.1566 0.9719
1.2991 6.9256 -1.1608 0.9718
1.0537 6.9935 -1.1651 0.9717
0.5538 7.1038 -1.1738 0.9715
-0.2148 7.2036 -1.1872 0.9712
-0.4749 7.2188 -1.1918 0.9711
-0.7363 7.2246 -1.1963 0.9710
-0.9987 7.2211 -1.2009 0.9709
-1.2619 7.2081 -1.2055 0.9708
-1.5254 7.1855 -1.2101 0.9707
-2.0520 7.1113 -1.2193 0.9704
-2.3144 7.0596 -1.2239 0.9703
-2.8354 6.9266 -1.2330 0.9701
-3.6016 6.6534 -1.2464 0.9698
-3.8514 6.5427 -1.2507 0.9697
-4.0976 6.4224 -1.2550 0.9696
-4.3399 6.2924 -1.2592 0.9695
-5.0390 5.8460 -1.2715 0.9692
-5.2614 5.6788 -1.2753 0.9691
-5.4779 5.5027 -1.2791 0.9690
-5.6880 5.3179 -1.2828 0.9689
-6.4568 4.4964 -1.2962 0.9686
-6.6293 4.2719 -1.2992 0.9685
-6.9481 3.8019 -1.3048 0.9684
-7.0938 3.5571 -1.3073 0.9683
-7.2299 3.3064 -1.3097 0.9683
-7.4724 2.7887 -1.3139 0.9682
-7.6735 2.2518 -1.3174 0.9681
-7.7580 1.9774 -1.3189 0.9681
-7.9451 1.1355 -1.3222 0.9680
-8.0133 0.5635 -1.3234 0.9680
-8.0301 0.2758 -1.3237 0.9680
-7.9820 -0.8748 -1.3228 0.9680
-7.8891 -1.4429 -1.3212 0.9680
-7.8257 -1.7235 -1.3201 0.9680
-6.8280 -1.7627 -1.1617 0.9718
-5.3441 -2.2351 -0.9543 0.9768
-6.3354 -2.9210 -1.1493 0.9721
-5.9500 -3.5636 -1.1425 0.9723
-5.8055 -3.7663 -1.1400 0.9723
-4.7916 -4.8430 -1.1223 0.9728
-3.9534 -4.6152 -1.0011 0.9757
-4.0766 -6.4331 -1.2547 0.9696
-1.1993 -2.0518 -0.3915 0.9904
-1.0698 -2.1745 -0.3992 0.9902
-3.0712 -6.8527 -1.2371 0.9700
-2.8132 -6.9331 -1.2326 0.9701
-2.5533 -7.0037 -1.2281 0.9702
-2.2919 -7.0644 -1.2235 0.9703
-2.0295 -7.1153 -1.2189 0.9705
-1.1400 -4.6189 -0.7837 0.9809
-0.9762 -7.2218 -1.2005 0.9709
-0.7138 -7.2245 -1.1960 0.9710
-0.4525 -7.2178 -1.1914 0.9711
0.0960 -2.1318 -0.3515 0.9914
0.1673 -2.0635 -0.3411 0.9916
1.0749 -6.9880 -1.1647 0.9717
1.3200 -6.9194 -1.1605 0.9718
0.8081 -3.5411 -0.5984 0.9854
2.0335 -6.6653 -1.1480 0.9721
1.5915 -4.6163 -0.8044 0.9804
2.7095 -6.3425 -1.1362 0.9724
2.9255 -6.2205 -1.1324 0.9725
3.3422 -5.9563 -1.1252 0.9727
1.3019 -2.1367 -0.4122 0.9899
3.0369 -4.6042 -0.9086 0.9779
3.7629 -4.5526 -0.9730 0.9763
5.7610 -0.0787 -1.0829 0.9768
5.7382 0.5408 -1.0833 0.9768
5.6892 0.9515 -1.0842 0.9768
5.5651 1.5602 -1.0864 0.9768
5.5104 1.7603 -1.0873 0.9767
5.4491 1.9587 -1.0884 0.9767
1.7943 1.3139 -0.4180 0.9910
4.6075 3.6348 -1.1031 0.9764
4.4830 3.8052 -1.1052 0.9764
4.3526 3.9717 -1.1075 0.9763
4.2164 4.1341 -1.1099 0.9763
4.0745 4.2922 -1.1124 0.9762
3.9270 4.4458 -1.1149 0.9761
3.7740 4.5948 -1.1176 0.9761
3.1101 5.1400 -1.1292 0.9758
2.9318 5.2627 -1.1323 0.9758
1.7713 5.8706 -1.1526 0.9754
0.9253 6.1412 -1.1673 0.9750
0.7068 6.1906 -1.1712 0.9750
0.4859 6.2325 -1.1750 0.9749
-0.1882 6.3112 -1.1868 0.9746
-0.4158 6.3214 -1.1908 0.9745
-0.8737 6.3175 -1.1987 0.9744
-1.3332 6.2804 -1.2068 0.9742
-2.2469 6.1048 -1.2227 0.9739
-2.4723 6.0396 -1.2266 0.9738
-2.6959 5.9660 -1.2306 0.9737
-2.9173 5.8839 -1.2344 0.9736
-3.5647 5.5872 -1.2457 0.9734
-3.9790 5.3482 -1.2529 0.9732
-4.1800 5.2166 -1.2565 0.9732
-4.3763 5.0771 -1.2599 0.9731
-4.9341 4.6131 -1.2696 0.9729
-5.2769 4.2675 -1.2756 0.9728
-5.4385 4.0845 -1.2784 0.9727
-5.8811 3.4978 -1.2861 0.9725
-6.0136 3.2905 -1.2885 0.9725
-6.2543 2.8603 -1.2927 0.9724
-6.3621 2.6379 -1.2945 0.9724
-6.7674 1.4686 -1.3016 0.9722
-6.8981 0.7345 -1.3039 0.9722
-6.9366 0.2383 -1.3046 0.9721
-6.9411 -0.0107 -1.3047 0.9721
-6.8608 -1.0020 -1.3033 0.9722
-6.7624 -1.4893 -1.3015 0.9722
-5.4257 -2.0439 -1.0898 0.9767
-5.3413 -2.2340 -1.0882 0.9767
-5.4806 -2.5269 -1.1344 0.9757
-5.1512 -3.0852 -1.1286 0.9759
-2.5091 -2.1962 -0.6268 0.9865
-4.3170 -4.0611 -1.1140 0.9762
-3.9945 -4.3381 -1.1084 0.9763
-3.8262 -4.4667 -1.1055 0.9763
-3.4769 -4.7034 -1.0994 0.9765
-3.2965 -4.8112 -1.0962 0.9765
-3.1127 -4.9120 -1.0930 0.9766
-2.5438 -5.1705 -1.0831 0.9768
-0.9882 -2.2050 -0.4542 0.9902
-2.2275 -6.1100 -1.2224 0.9739
-1.1398 -4.6181 -0.8941 0.9808
-0.8541 -6.3183 -1.1984 0.9744
0.0575 -6.2909 -1.1825 0.9747
0.1673 -2.0638 -0.3892 0.9916
0.2424 -2.0663 -0.3911 0.9916
0.9439 -6.1367 -1.1670 0.9750
1.1597 -6.0792 -1.1633 0.9751
1.5700 -5.1461 -1.0113 0.9783
1.5917 -4.6170 -0.9179 0.9803
2.0945 -4.9030 -1.0021 0.9785
2.2624 -4.8106 -0.9992 0.9786
2.8947 -4.3886 -0.9882 0.9788
1.5849 -2.0640 -0.4891 0.9895
3.3240 -4.0216 -0.9807 0.9790
5.1707 0.1149 -1.0932 0.9791
5.1507 0.4854 -1.0936 0.9791
5.1063 0.8540 -1.0944 0.9791
5.0375 1.2192 -1.0956 0.9790
4.9444 1.5795 -1.0972 0.9790
4.8275 1.9335 -1.0992 0.9790
4.7601 2.1076 -1.1004 0.9789
4.6869 2.2796 -1.1017 0.9789
2.0305 1.0793 -0.4861 0.9906
1.9109 1.1054 -0.4666 0.9910
1.7619 1.1054 -0.4397 0.9915
1.6889 1.1460 -0.4314 0.9917
1.6410 1.2946 -0.4418 0.9915
4.0157 3.4086 -1.1134 0.9787
3.8981 3.5569 -1.1155 0.9787
3.5144 3.9788 -1.1221 0.9785
3.2342 4.2389 -1.1270 0.9784
2.9356 4.4805 -1.1323 0.9783
2.7796 4.5939 -1.1350 0.9783
2.6195 4.7022 -1.1378 0.9782
2.2873 4.9027 -1.1436 0.9781
1.5796 5.2353 -1.1559 0.9779
1.3947 5.3034 -1.1591 0.9778
1.2070 5.3651 -1.1624 0.9778
0.4324 5.5464 -1.1759 0.9775
0.2339 5.5747 -1.1794 0.9774
0.0339 5.5960 -1.1829 0.9774
-0.1673 5.6102 -1.1864 0.9773
-0.3695 5.6173 -1.1899 0.9772
-0.5724 5.6171 -1.1935 0.9772
-0.7758 5.6096 -1.1970 0.9771
-0.9794 5.5947 -1.2006 0.9770
-1.5886 5.5055 -1.2112 0.9768
-2.1896 5.3489 -1.2217 0.9766
-3.1514 4.9394 -1.2385 0.9763
-3.3352 4.8357 -1.2417 0.9763
-3.5153 4.7249 -1.2449 0.9762
-3.6916 4.6072 -1.2479 0.9762
-3.8638 4.4826 -1.2509 0.9761
-4.0315 4.3513 -1.2539 0.9760
-4.1944 4.2134 -1.2567 0.9760
-4.3524 4.0692 -1.2595 0.9759
-4.7934 3.6000 -1.2672 0.9758
-5.2953 2.8975 -1.2759 0.9756
-5.4038 2.7097 -1.2778 0.9756
-5.5051 2.5176 -1.2796 0.9756
-5.5990 2.3216 -1.2812 0.9755
-5.6854 2.1217 -1.2827 0.9755
-5.8347 1.7122 -1.2853 0.9754
-5.9518 1.2916 -1.2874 0.9754
-5.9981 1.0780 -1.2882 0.9754
-6.0360 0.8626 -1.2889 0.9754
-6.0655 0.6458 -1.2894 0.9754
-6.0989 0.2095 -1.2900 0.9754
-6.1028 -0.0094 -1.2900 0.9754
-6.0982 -0.2282 -1.2899 0.9754
-6.0850 -0.4467 -1.2897 0.9754
-6.0633 -0.6645 -1.2893 0.9754
-6.0331 -0.8812 -1.2888 0.9754
-5.9945 -1.0964 -1.2881 0.9754
-5.8923 -1.5212 -1.2863 0.9754
-5.2165 -1.7542 -1.1633 0.9778
-4.9835 -1.8773 -1.1257 0.9785
-3.9061 -2.1530 -0.9428 0.9819
-4.5370 -2.7173 -1.1179 0.9786
-4.3156 -3.0251 -1.1140 0.9787
-4.1965 -3.1720 -1.1119 0.9787
-2.5478 -2.0735 -0.6944 0.9867
-3.5257 -3.8290 -1.1002 0.9789
-3.3782 -3.9437 -1.0977 0.9790
-3.2268 -4.0526 -1.0950 0.9790
-2.7519 -4.3426 -1.0867 0.9792
-1.1990 -2.0512 -0.5022 0.9903
-2.2513 -4.5760 -1.0780 0.9794
-2.0799 -4.6408 -1.0750 0.9794
-0.8824 -2.1747 -0.4961 0.9905
-1.3790 -4.8349 -1.0628 0.9797
-1.1396 -4.6174 -1.0053 0.9807
-1.0229 -4.8925 -1.0565 0.9798
-0.8443 -4.9115 -1.0534 0.9798
-0.6656 -4.9240 -1.0503 0.9799
-0.3091 -4.9297 -1.0441 0.9800
-0.1317 -4.9230 -1.0410 0.9801
0.0448 -4.9100 -1.0379 0.9801
0.0962 -2.1355 -0.4519 0.9913
0.2423 -2.0660 -0.4397 0.9915
0.7378 -4.7965 -1.0258 0.9804
1.4002 -4.5894 -1.0143 0.9806
1.5596 -4.5238 -1.0115 0.9806
1.7162 -4.4529 -1.0087 0.9807
1.0271 -2.1840 -0.5102 0.9902
2.1675 -4.2097 -1.0009 0.9808
2.3112 -4.1189 -0.9983 0.9809
2.5880 -3.9235 -0.9935 0.9810
1.5142 -2.1257 -0.5517 0.9894
1.5851 -2.0643 -0.5502 0.9894
2.9741 -3.5983 -0.9868 0.9811
4.6871 -0.0640 -1.1017 0.9809
4.6864 0.1042 -1.1017 0.9809
4.6802 0.2722 -1.1018 0.9809
4.6508 0.6073 -1.1023 0.9809
4.5648 1.1048 -1.1038 0.9809
4.5251 1.2686 -1.1045 0.9809
4.4799 1.4311 -1.1053 0.9809
4.3732 1.7515 -1.1072 0.9808
4.3117 1.9091 -1.1082 0.9808
4.2449 2.0646 -1.1094 0.9808
2.0967 1.1145 -0.5581 0.9903
1.9109 1.1054 -0.5188 0.9910
1.7619 1.1054 -0.4888 0.9915
1.6290 1.1054 -0.4627 0.9919
1.5989 1.1708 -0.4657 0.9919
1.5718 1.3341 -0.4845 0.9916
3.5263 3.2177 -1.1219 0.9806
3.2983 3.4745 -1.1259 0.9805
3.0523 3.7161 -1.1302 0.9804
2.6518 4.0473 -1.1372 0.9803
2.3652 4.2456 -1.1422 0.9802
2.2164 4.3376 -1.1448 0.9802
1.9087 4.5063 -1.1502 0.9801
1.4241 4.7197 -1.1586 0.9799
1.2570 4.7798 -1.1616 0.9799
0.7421 4.9249 -1.1705 0.9797
0.0305 5.0333 -1.1830 0.9795
-0.1505 5.0446 -1.1861 0.9795
-0.3322 5.0494 -1.1893 0.9794
-0.5144 5.0477 -1.1925 0.9794
-0.6970 5.0394 -1.1957 0.9793
-0.8796 5.0246 -1.1988 0.9793
-1.0621 5.0030 -1.2020 0.9792
-1.2441 4.9748 -1.2052 0.9791
-1.4255 4.9400 -1.2084 0.9791
-1.6059 4.8984 -1.2115 0.9790
-1.9629 4.7952 -1.2178 0.9789
-2.1390 4.7337 -1.2208 0.9789
-2.4851 4.5907 -1.2269 0.9788
-2.8212 4.4218 -1.2327 0.9787
-3.1453 4.2275 -1.2384 0.9786
-3.4553 4.0086 -1.2438 0.9785
-3.7491 3.7661 -1.2489 0.9784
-3.8894 3.6363 -1.2514 0.9784
-4.2807 3.2150 -1.2582 0.9782
-4.5148 2.9093 -1.2623 0.9782
-4.8215 2.4177 -1.2677 0.9781
-4.9112 2.2460 -1.2692 0.9781
-4.9943 2.0708 -1.2707 0.9780
-5.0706 1.8923 -1.2720 0.9780
-5.2027 1.5268 -1.2743 0.9780
-5.2581 1.3402 -1.2753 0.9780
-5.4066 0.5757 -1.2779 0.9779
-5.4252 0.3815 -1.2782 0.9779
-5.4362 0.1867 -1.2784 0.9779
-5.4396 -0.0084 -1.2784 0.9779
-5.4355 -0.2034 -1.2784 0.9779
-5.4239 -0.3982 -1.2782 0.9779
-5.3439 -0.9774 -1.2768 0.9779
-5.3024 -1.1678 -1.2760 0.9779
-5.2536 -1.3563 -1.2752 0.9780
-4.6496 -1.7515 -1.1677 0.9798
-4.3772 -1.8307 -1.1151 0.9807
-3.9046 -2.1522 -1.0478 0.9818
-4.0495 -2.4254 -1.1094 0.9808
-3.7477 -2.8328 -1.1041 0.9809
-2.5474 -2.0731 -0.7719 0.9866
-3.4031 -3.2014 -1.0981 0.9810
-3.2797 -3.3149 -1.0959 0.9810
-3.0211 -3.5269 -1.0914 0.9811
-2.8865 -3.6251 -1.0891 0.9811
-1.1203 -2.0849 -0.5563 0.9903
-2.0171 -4.1000 -1.0739 0.9814
-1.8641 -4.1594 -1.0712 0.9814
-0.7813 -2.1431 -0.5361 0.9907
-0.7101 -2.1887 -0.5408 0.9906
-1.2374 -4.3384 -1.0603 0.9816
-1.0782 -4.3685 -1.0575 0.9817
-0.9184 -4.3928 -1.0547 0.9817
-0.7582 -4.4112 -1.0519 0.9818
-0.2954 -2.1854 -0.5183 0.9910
-0.4377 -4.4305 -1.0463 0.9819
-0.2778 -4.4315 -1.0435 0.9819
0.0403 -4.4164 -1.0380 0.9820
0.6644 -4.3194 -1.0271 0.9822
0.8168 -4.2817 -1.0244 0.9822
0.8074 -3.5381 -0.8529 0.9852
1.8232 -3.8768 -1.0069 0.9826
2.2140 -3.6337 -1.0000 0.9827
1.5149 -2.1266 -0.6137 0.9893
2.6884 -3.2526 -0.9918 0.9828
4.2819 -0.0585 -1.1088 0.9825
4.2485 0.5547 -1.1093 0.9825
4.1695 1.0091 -1.1107 0.9824
4.0449 1.4540 -1.1129 0.9824
3.9369 1.7431 -1.1148 0.9824
1.7619 1.1054 -0.5385 0.9914
1.6290 1.1054 -0.5097 0.9919
1.5522 1.1366 -0.4981 0.9921
1.5387 1.2139 -0.5075 0.9919
3.1139 3.0532 -1.1291 0.9821
3.0074 3.1681 -1.1310 0.9821
2.8967 3.2795 -1.1329 0.9821
2.7822 3.3872 -1.1349 0.9821
2.5416 3.5912 -1.1391 0.9820
2.1539 3.8663 -1.1459 0.9819
2.0180 3.9492 -1.1483 0.9818
1.7371 4.1011 -1.1532 0.9818
1.5924 4.1699 -1.1557 0.9817
1.4450 4.2337 -1.1583 0.9817
1.1430 4.3461 -1.1635 0.9816
0.9886 4.3944 -1.1662 0.9816
-0.6321 4.5700 -1.1945 0.9811
-0.7975 4.5554 -1.1974 0.9811
-1.4545 4.4366 -1.2089 0.9809
-1.9360 4.2843 -1.2173 0.9808
-2.2481 4.1530 -1.2227 0.9807
-2.6985 3.9125 -1.2306 0.9806
-2.9840 3.7241 -1.2356 0.9805
-1.2268 1.3242 -0.4674 0.9926
-3.6336 3.1607 -1.2469 0.9803
-4.0731 2.6247 -1.2546 0.9802
-4.1702 2.4802 -1.2563 0.9802
-4.2619 2.3321 -1.2579 0.9801
-4.5028 1.8670 -1.2621 0.9801
-4.7389 1.2079 -1.2662 0.9800
-4.8485 0.6929 -1.2681 0.9800
-4.8718 0.5187 -1.2685 0.9800
-4.8983 0.1682 -1.2690 0.9800
-4.8701 -0.5337 -1.2685 0.9800
-4.8462 -0.7078 -1.2681 0.9800
-4.7786 -1.0524 -1.2669 0.9800
-4.5655 -1.7198 -1.2632 0.9800
-4.1815 -1.7489 -1.1736 0.9814
-3.8807 -1.7892 -1.1064 0.9825
-3.8097 -1.9251 -1.1052 0.9825
-3.7338 -2.0580 -1.1039 0.9825
-3.5672 -2.3142 -1.1010 0.9826
-3.4769 -2.4372 -1.0994 0.9826
-2.5027 -2.1905 -0.8611 0.9864
-2.9619 -2.9937 -1.0904 0.9827
-2.8474 -3.0923 -1.0884 0.9828
-2.6084 -3.2759 -1.0842 0.9828
-2.3573 -3.4405 -1.0798 0.9829
-2.2277 -3.5154 -1.0776 0.9830
-1.1198 -2.0839 -0.6125 0.9903
-1.4065 -3.8581 -1.0632 0.9832
-0.9771 -3.9587 -1.0557 0.9833
-0.6875 -3.9994 -1.0507 0.9834
-0.5423 -4.0117 -1.0482 0.9834
-0.3971 -4.0189 -1.0456 0.9835
0.0366 -4.0090 -1.0381 0.9836
0.1674 -2.0649 -0.5364 0.9915
0.7423 -3.8915 -1.0257 0.9838
1.1480 -3.7630 -1.0187 0.9839
1.2794 -3.7111 -1.0164 0.9839
1.5353 -3.5940 -1.0119 0.9840
1.9004 -3.3868 -1.0055 0.9841
2.1298 -3.2289 -1.0015 0.9841
1.5156 -2.1276 -0.6763 0.9893
3.9369 0.0875 -1.1148 0.9838
3.9315 0.2287 -1.1149 0.9838
3.9214 0.3696 -1.1150 0.9838
3.9066 0.5101 -1.1153 0.9838
3.8626 0.7894 -1.1161 0.9837
3.8335 0.9278 -1.1166 0.9837
3.7998 1.0653 -1.1172 0.9837
3.7614 1.2016 -1.1178 0.9837
3.6708 1.4702 -1.1194 0.9837
3.6186 1.6022 -1.1203 0.9837
2.1554 1.0484 -0.6785 0.9901
2.0796 1.1054 -0.6667 0.9903
1.9109 1.1054 -0.6249 0.9909
1.7619 1.1054 -0.5888 0.9914
1.6290 1.1054 -0.5573 0.9918
1.4934 1.2676 -0.5545 0.9919
2.7610 2.9086 -1.1353 0.9835
2.6591 3.0104 -1.1371 0.9834
2.5535 3.1089 -1.1389 0.9834
2.4445 3.2038 -1.1408 0.9834
2.3320 3.2951 -1.1428 0.9834
2.2162 3.3826 -1.1448 0.9833
2.0973 3.4661 -1.1469 0.9833
1.9753 3.5457 -1.1490 0.9833
1.8504 3.6211 -1.1512 0.9832
1.7226 3.6923 -1.1534 0.9832
1.4593 3.8215 -1.1580 0.9831
1.3240 3.8792 -1.1604 0.9831
0.9053 4.0242 -1.1677 0.9830
0.7621 4.0627 -1.1702 0.9830
0.4709 4.1248 -1.1753 0.9829
0.1748 4.1661 -1.1804 0.9828
0.0253 4.1789 -1.1831 0.9828
-0.2755 4.1885 -1.1883 0.9827
-0.4265 4.1852 -1.1909 0.9827
-0.8794 4.1425 -1.1988 0.9825
-1.1792 4.0866 -1.2041 0.9825
-1.3279 4.0504 -1.2067 0.9824
-1.6216 3.9615 -1.2118 0.9824
-1.9093 3.8510 -1.2168 0.9823
-2.0504 3.7877 -1.2193 0.9823
-2.3257 3.6453 -1.2241 0.9822
-2.4597 3.5663 -1.2264 0.9822
-2.5908 3.4823 -1.2287 0.9821
-1.1217 1.3014 -0.4864 0.9929
-1.1538 1.2453 -0.4806 0.9930
-1.3668 1.1054 -0.4976 0.9927
-1.4838 1.1144 -0.5253 0.9923
-3.6135 2.5164 -1.2466 0.9819
-3.7063 2.3883 -1.2482 0.9818
-4.3085 1.0982 -1.2587 0.9817
-4.3474 0.9434 -1.2594 0.9817
-4.4436 0.3125 -1.2611 0.9817
-4.4525 0.1529 -1.2612 0.9816
-4.4553 -0.0069 -1.2613 0.9816
-4.3443 -0.9568 -1.2593 0.9817
-4.3049 -1.1114 -1.2586 0.9817
-4.2596 -1.2642 -1.2578 0.9817
-4.2085 -1.4152 -1.2570 0.9817
-4.1518 -1.5640 -1.2560 0.9817
-3.3235 -1.9905 -1.0967 0.9840
-3.1642 -2.2180 -1.0939 0.9841
-2.6975 -2.7265 -1.0858 0.9842
-2.5937 -2.8168 -1.0840 0.9842
-2.4867 -2.9030 -1.0821 0.9842
-2.3768 -2.9850 -1.0802 0.9843
-2.2640 -3.0627 -1.0782 0.9843
-2.1487 -3.1361 -1.0762 0.9843
-2.0310 -3.2050 -1.0741 0.9844
-1.1192 -2.0828 -0.6694 0.9902
-1.2838 -3.5215 -1.0611 0.9845
-1.1542 -3.5577 -1.0588 0.9846
-0.8924 -3.6156 -1.0543 0.9846
-0.7605 -3.6373 -1.0520 0.9847
-0.6281 -3.6542 -1.0497 0.9847
-0.4956 -3.6663 -1.0473 0.9847
-0.2305 -3.6761 -1.0427 0.9848
0.0964 -2.1414 -0.6068 0.9911
0.5526 -3.5928 -1.0290 0.9850
0.8053 -3.5287 -1.0246 0.9851
1.0517 -3.4474 -1.0203 0.9851
1.1723 -3.4004 -1.0182 0.9852
1.4073 -3.2943 -1.0141 0.9852
1.7429 -3.1060 -1.0083 0.9853
1.8497 -3.0359 -1.0064 0.9853
1.9539 -2.9622 -1.0046 0.9854
1.5163 -2.1286 -0.7398 0.9892
2.2492 -2.7212 -0.9994 0.9854
3.6403 0.0809 -1.1200 0.9849
3.6353 0.2114 -1.1200 0.9849
3.5939 0.6011 -1.1208 0.9849
3.5443 0.8578 -1.1216 0.9849
3.5130 0.9848 -1.1222 0.9848
3.4773 1.1108 -1.1228 0.9848
3.3932 1.3590 -1.1243 0.9848
3.3448 1.4809 -1.1251 0.9848
1.9109 1.1054 -0.6790 0.9908
1.7619 1.1054 -0.6397 0.9913
1.6290 1.1054 -0.6055 0.9918
1.5095 1.1054 -0.5755 0.9922
1.4593 1.3316 -0.6076 0.9918
2.3573 2.8700 -1.1423 0.9846
2.2563 2.9572 -1.1441 0.9846
2.1522 3.0411 -1.1459 0.9845
1.8223 3.2710 -1.1517 0.9845
1.7068 3.3401 -1.1537 0.9844
1.5887 3.4053 -1.1558 0.9844
1.4682 3.4663 -1.1579 0.9844
1.2205 3.5760 -1.1622 0.9843
1.0935 3.6243 -1.1644 0.9843
0.7020 3.7427 -1.1712 0.9842
0.4337 3.7985 -1.1759 0.9841
0.2977 3.8193 -1.1783 0.9841
0.1609 3.8353 -1.1807 0.9841
0.0233 3.8464 -1.1831 0.9840
-0.2535 3.8538 -1.1879 0.9840
-0.5313 3.8414 -1.1928 0.9839
-0.6701 3.8276 -1.1952 0.9839
-0.8085 3.8088 -1.1976 0.9838
-1.4897 3.6392 -1.2095 0.9837
-1.6224 3.5903 -1.2118 0.9836
-1.7534 3.5365 -1.2141 0.9836
-2.0098 3.4142 -1.2186 0.9836
-2.1348 3.3459 -1.2208 0.9835
-2.2573 3.2729 -1.2229 0.9835
-1.0520 1.3129 -0.5175 0.9930
-1.0898 1.1762 -0.4932 0.9933
-1.1174 1.1225 -0.4872 0.9934
-1.1823 1.1054 -0.4978 0.9932
-1.3668 1.1054 -0.5407 0.9927
-3.6234 1.8169 -1.2467 0.9832
-3.8586 1.2843 -1.2508 0.9831
-3.9047 1.1459 -1.2517 0.9831
-3.9455 1.0057 -1.2524 0.9831
-4.0111 0.7209 -1.2535 0.9831
-4.0358 0.5768 -1.2539 0.9831
-4.0550 0.4318 -1.2543 0.9831
-4.0686 0.2861 -1.2545 0.9831
-4.0767 0.1400 -1.2547 0.9831
-4.0535 -0.4442 -1.2542 0.9831
-4.0339 -0.5892 -1.2539 0.9831
-3.9782 -0.8761 -1.2529 0.9831
-3.9010 -1.1578 -1.2516 0.9831
-3.8027 -1.4325 -1.2499 0.9831
-3.6841 -1.6986 -1.2478 0.9832
-3.1856 -1.7558 -1.1188 0.9849
-2.9001 -2.0328 -1.0893 0.9853
-2.8217 -2.1329 -1.0879 0.9853
-2.5460 -2.0720 -1.0096 0.9864
-2.4982 -2.1867 -1.0212 0.9862
-2.5657 -2.4136 -1.0835 0.9854
-2.2811 -2.6630 -1.0785 0.9854
-2.1806 -2.7386 -1.0768 0.9855
-2.0775 -2.8104 -1.0750 0.9855
-1.1190 -2.0825 -0.7271 0.9902
-1.4139 -3.1549 -1.0634 0.9856
-1.1796 -3.2356 -1.0593 0.9857
-1.0607 -3.2694 -1.0572 0.9857
-0.8204 -3.3238 -1.0530 0.9858
-0.5776 -3.3605 -1.0488 0.9858
-0.4558 -3.3722 -1.0466 0.9859
-0.3339 -3.3795 -1.0445 0.9859
0.1674 -2.0656 -0.6374 0.9914
0.2421 -2.0645 -0.6393 0.9913
0.8565 -3.2163 -1.0237 0.9862
0.9694 -3.1774 -1.0218 0.9862
1.0807 -3.1346 -1.0198 0.9862
1.2977 -3.0378 -1.0160 0.9863
1.4033 -2.9838 -1.0142 0.9863
1.5067 -2.9264 -1.0124 0.9863
1.6079 -2.8655 -1.0106 0.9863
1.5862 -2.0657 -0.8011 0.9892
2.0764 -2.5121 -1.0024 0.9865
3.3820 0.0752 -1.1245 0.9858
3.3773 0.1964 -1.1245 0.9858
3.3686 0.3175 -1.1247 0.9858
3.3557 0.4382 -1.1249 0.9858
3.3176 0.6780 -1.1256 0.9858
3.2925 0.7968 -1.1260 0.9858
3.2632 0.9148 -1.1265 0.9858
3.2300 1.0318 -1.1271 0.9858
3.1927 1.1477 -1.1278 0.9858
1.9109 1.1054 -0.7338 0.9907
1.6290 1.1054 -0.6544 0.9917
1.4541 1.1471 -0.6157 0.9922
1.4449 1.2264 -0.6300 0.9920
2.1869 2.6626 -1.1453 0.9856
1.7944 2.9656 -1.1522 0.9855
1.6896 3.0328 -1.1540 0.9855
1.5823 3.0965 -1.1559 0.9854
1.3608 3.2126 -1.1597 0.9854
1.0131 3.3577 -1.1658 0.9853
0.6501 3.4658 -1.1721 0.9852
0.5263 3.4933 -1.1743 0.9852
0.2756 3.5352 -1.1787 0.9852
-0.2345 3.5650 -1.1876 0.9851
-0.3629 3.5610 -1.1898 0.9850
-0.4913 3.5524 -1.1921 0.9850
-0.6196 3.5391 -1.1943 0.9850
-0.7475 3.5212 -1.1965 0.9849
-1.2525 3.4030 -1.2054 0.9848
-1.7384 3.2113 -1.2138 0.9847
-1.8556 3.1522 -1.2159 0.9847
-1.9707 3.0888 -1.2179 0.9847
-2.0836 3.0210 -1.2199 0.9847
-1.0363 1.2023 -0.5276 0.9933
-1.0546 1.1383 -0.5158 0.9935
-1.1823 1.1054 -0.5380 0.9932
-1.2708 1.1054 -0.5599 0.9929
-1.3668 1.1054 -0.5843 0.9926
-1.4718 1.1054 -0.6118 0.9923
-1.5852 1.1039 -0.6421 0.9919
-3.2047 1.9060 -1.2394 0.9844
-3.3394 1.6745 -1.2418 0.9844
-3.4002 1.5550 -1.2428 0.9844
-3.4565 1.4332 -1.2438 0.9844
-3.5083 1.3093 -1.2447 0.9843
-3.5553 1.1834 -1.2456 0.9843
-3.5976 1.0557 -1.2463 0.9843
-3.6676 0.7959 -1.2475 0.9843
-3.7178 0.5313 -1.2484 0.9843
-3.7554 0.1290 -1.2490 0.9843
-3.7577 -0.0058 -1.2491 0.9843
-3.6320 -0.9377 -1.2469 0.9843
-1.4776 -0.4969 -0.5182 0.9935
-3.3340 -1.6847 -1.2417 0.9844
-2.6737 -1.8742 -1.0854 0.9863
-2.4480 -2.1427 -1.0814 0.9864
-2.3665 -2.2262 -1.0800 0.9864
-2.2820 -2.3065 -1.0785 0.9864
-2.1047 -2.4571 -1.0754 0.9865
-1.9173 -2.5937 -1.0722 0.9865
-1.1980 -2.0495 -0.7891 0.9900
-1.1188 -2.0821 -0.7857 0.9901
-1.4122 -2.8704 -1.0633 0.9866
-1.1985 -2.9538 -1.0596 0.9867
-0.9802 -3.0212 -1.0558 0.9867
-0.8696 -3.0488 -1.0539 0.9867
0.0285 -3.1231 -1.0382 0.9869
0.1675 -2.0659 -0.6890 0.9913
0.2421 -2.0641 -0.6908 0.9913
0.4713 -3.0640 -1.0305 0.9870
0.7933 -2.9793 -1.0248 0.9871
0.8981 -2.9437 -1.0230 0.9871
1.0013 -2.9044 -1.0212 0.9871
1.1029 -2.8617 -1.0194 0.9872
1.2028 -2.8155 -1.0177 0.9872
1.3008 -2.7659 -1.0160 0.9872
1.3968 -2.7129 -1.0143 0.9872
1.4908 -2.6568 -1.0127 0.9872
1.5826 -2.5975 -1.0111 0.9873
1.5177 -2.1306 -0.8695 0.9890
3.1547 0.0701 -1.1284 0.9867
3.1422 0.2961 -1.1286 0.9867
3.1301 0.4087 -1.1289 0.9867
3.0945 0.6324 -1.1295 0.9867
3.0709 0.7432 -1.1299 0.9867
3.0436 0.8533 -1.1304 0.9867
3.0125 0.9623 -1.1309 0.9867
2.9391 1.1771 -1.1322 0.9866
2.8968 1.2826 -1.1329 0.9866
1.9109 1.1054 -0.7894 0.9907
1.7619 1.1054 -0.7438 0.9912
1.6290 1.1054 -0.7040 0.9917
1.4295 1.2134 -0.6705 0.9921
2.2044 2.3222 -1.1450 0.9865
2.0374 2.4806 -1.1479 0.9865
1.8594 2.6273 -1.1510 0.9864
1.6711 2.7617 -1.1543 0.9864
1.4732 2.8830 -1.1578 0.9863
1.1604 3.0388 -1.1632 0.9863
0.9427 3.1244 -1.1670 0.9862
0.7187 3.1946 -1.1709 0.9862
0.0200 3.3084 -1.1831 0.9860
-0.4565 3.3003 -1.1915 0.9859
-0.6943 3.2705 -1.1956 0.9859
-0.8125 3.2491 -1.1977 0.9859
-1.0469 3.1934 -1.2018 0.9858
-1.1627 3.1591 -1.2038 0.9858
-1.6130 2.9797 -1.2116 0.9857
-0.9650 1.2971 -0.5781 0.9932
-1.0027 1.1633 -0.5492 0.9935
-1.1823 1.1054 -0.5788 0.9931
-1.2708 1.1054 -0.6023 0.9929
-1.3668 1.1054 -0.6286 0.9926
-2.9009 1.8693 -1.2341 0.9854
-2.9690 1.7658 -1.2353 0.9854
-3.0933 1.5511 -1.2375 0.9854
-3.1495 1.4403 -1.2385 0.9854
-3.2015 1.3274 -1.2394 0.9854
-3.2492 1.2126 -1.2402 0.9854
-3.2926 1.0959 -1.2410 0.9854
-3.4588 0.3683 -1.2439 0.9853
-3.4772 0.1194 -1.2442 0.9853
-3.4793 -0.0054 -1.2442 0.9853
-3.4695 -0.2547 -1.2441 0.9853
-3.4409 -0.5026 -1.2436 0.9853
-1.5067 -0.3318 -0.5517 0.9935
-1.3028 -0.3363 -0.4811 0.9943
-1.2719 -0.3775 -0.4744 0.9944
-1.2243 -0.4612 -0.4678 0.9945
-1.2125 -0.5071 -0.4700 0.9944
-3.0883 -1.5605 -1.2374 0.9854
-3.0278 -1.6689 -1.2363 0.9854
-2.6954 -1.7487 -1.1490 0.9864
-2.5080 -1.7580 -1.0953 0.9871
-2.4110 -1.8224 -1.0808 0.9872
-2.3521 -1.9142 -1.0845 0.9872
-2.2689 -1.9860 -1.0783 0.9873
-2.1936 -2.0635 -1.0770 0.9873
-2.1155 -2.1382 -1.0756 0.9873
-1.8660 -2.3435 -1.0713 0.9874
-1.7782 -2.4055 -1.0697 0.9874
-1.5964 -2.5192 -1.0666 0.9874
-1.1186 -2.0818 -0.8451 0.9900
-1.3104 -2.6636 -1.0616 0.9875
-1.2121 -2.7045 -1.0598 0.9875
-1.0118 -2.7753 -1.0564 0.9875
-0.9101 -2.8050 -1.0546 0.9876
-0.8075 -2.8311 -1.0528 0.9876
-0.7042 -2.8533 -1.0510 0.9876
-0.4962 -2.8864 -1.0474 0.9876
0.1675 -2.0663 -0.7413 0.9912
0.5393 -2.8273 -1.0293 0.9878
0.8357 -2.7391 -1.0241 0.9879
1.0265 -2.6635 -1.0208 0.9879
1.1196 -2.6208 -1.0191 0.9880
1.2110 -2.5749 -1.0176 0.9880
1.3005 -2.5259 -1.0160 0.9880
1.4739 -2.4190 -1.0130 0.9880
1.5184 -2.1316 -0.9359 0.9889
2.9535 -0.0403 -1.1319 0.9874
2.9490 0.1715 -1.1320 0.9874
2.9413 0.2772 -1.1322 0.9874
2.9150 0.4875 -1.1326 0.9874
2.8744 0.6957 -1.1333 0.9874
2.8195 0.9007 -1.1343 0.9874
2.7506 1.1017 -1.1355 0.9874
2.7110 1.2003 -1.1362 0.9874
2.0796 1.1054 -0.9025 0.9900
1.6290 1.1054 -0.7544 0.9916
1.5095 1.1054 -0.7170 0.9920
1.4216 1.2066 -0.7145 0.9920
2.1357 2.0940 -1.1462 0.9873
1.9847 2.2469 -1.1489 0.9872
1.9051 2.3194 -1.1502 0.9872
1.8230 2.3892 -1.1517 0.9872
1.5619 2.5814 -1.1562 0.9872
1.3767 2.6942 -1.1595 0.9871
1.2810 2.7458 -1.1611 0.9871
1.1835 2.7941 -1.1628 0.9871
0.9831 2.8804 -1.1663 0.9870
0.8805 2.9183 -1.1681 0.9870
0.7765 2.9525 -1.1699 0.9870
0.4570 3.0333 -1.1755 0.9869
0.0187 3.0874 -1.1832 0.9869
-0.0922 3.0911 -1.1851 0.9868
-0.2033 3.0909 -1.1870 0.9868
-0.3146 3.0866 -1.1890 0.9868
-0.6474 3.0498 -1.1948 0.9867
-0.7576 3.0295 -1.1967 0.9867
-0.8672 3.0052 -1.1986 0.9867
-1.0838 2.9446 -1.2024 0.9866
-1.4002 2.8240 -1.2079 0.9866
-0.9452 1.2704 -0.6068 0.9932
-0.9586 1.1963 -0.5875 0.9935
-1.2708 1.1054 -0.6454 0.9928
-1.6182 1.0428 -0.7377 0.9918
-2.7625 1.6430 -1.2317 0.9863
-2.8220 1.5441 -1.2328 0.9863
-2.8778 1.4431 -1.2337 0.9863
-2.9299 1.3399 -1.2346 0.9863
-2.9781 1.2348 -1.2355 0.9863
-3.0224 1.1279 -1.2362 0.9863
-3.0626 1.0194 -1.2370 0.9863
-3.1587 0.6855 -1.2386 0.9862
-3.1823 0.5719 -1.2390 0.9862
-3.2357 -0.0050 -1.2400 0.9862
-3.2333 -0.1210 -1.2399 0.9862
-3.2155 -0.3524 -1.2396 0.9862
-3.2001 -0.4674 -1.2394 0.9862
-1.5530 -0.2840 -0.6050 0.9933
-1.2183 -0.3145 -0.4822 0.9946
-1.1872 -0.3523 -0.4746 0.9947
-1.1779 -0.3961 -0.4762 0.9947
-1.1560 -0.4835 -0.4802 0.9946
-1.1433 -0.5271 -0.4825 0.9946
-2.8170 -1.5527 -1.2327 0.9863
-2.4895 -1.7450 -1.1650 0.9871
-2.3203 -1.7538 -1.1146 0.9876
-2.1119 -1.8485 -1.0756 0.9880
-1.8944 -2.0574 -1.0718 0.9881
-1.6560 -2.2402 -1.0676 0.9881
-1.1976 -2.0488 -0.9094 0.9899
-1.2211 -2.4820 -1.0600 0.9882
-1.0369 -2.5553 -1.0568 0.9883
-0.9431 -2.5869 -1.0552 0.9883
-0.8484 -2.6149 -1.0535 0.9883
-0.5599 -2.6780 -1.0485 0.9883
-0.3653 -2.7025 -1.0451 0.9884
-0.0726 -2.7128 -1.0400 0.9884
0.1675 -2.0666 -0.7946 0.9912
0.2420 -2.0633 -0.7961 0.9911
0.4092 -2.6605 -1.0315 0.9885
0.5036 -2.6399 -1.0299 0.9886
0.5970 -2.6160 -1.0283 0.9886
0.6894 -2.5888 -1.0267 0.9886
0.7806 -2.5585 -1.0251 0.9886
0.8705 -2.5250 -1.0235 0.9886
1.0461 -2.4487 -1.0204 0.9887
1.5192 -2.1326 -1.0034 0.9888
1.5870 -2.0668 -0.9986 0.9889
1.6781 -2.0303 -1.0094 0.9888
2.7617 0.2603 -1.1353 0.9881
2.7510 0.3592 -1.1355 0.9881
2.7369 0.4577 -1.1357 0.9881
2.7195 0.5558 -1.1360 0.9881
2.5822 1.0342 -1.1384 0.9880
2.5449 1.1268 -1.1391 0.9880
2.5044 1.2181 -1.1398 0.9880
2.0796 1.1054 -0.9639 0.9899
1.9109 1.1054 -0.9035 0.9905
1.6290 1.1054 -0.8057 0.9915
1.5095 1.1054 -0.7657 0.9919
1.4172 1.1180 -0.7388 0.9922
1.4095 1.2862 -0.7810 0.9918
1.8618 2.1078 -1.1510 0.9879
1.7870 2.1757 -1.1523 0.9879
1.7098 2.2410 -1.1536 0.9879
1.6303 2.3036 -1.1550 0.9879
1.4646 2.4206 -1.1579 0.9878
1.2907 2.5260 -1.1610 0.9878
1.2009 2.5741 -1.1625 0.9878
1.1094 2.6191 -1.1641 0.9878
1.0161 2.6609 -1.1658 0.9878
0.9214 2.6995 -1.1674 0.9877
0.7276 2.7666 -1.1708 0.9877
0.6288 2.7950 -1.1725 0.9877
0.5289 2.8199 -1.1743 0.9877
0.4281 2.8414 -1.1760 0.9877
0.3264 2.8592 -1.1778 0.9876
0.2240 2.8734 -1.1796 0.9876
0.0175 2.8909 -1.1832 0.9876
-0.0863 2.8941 -1.1850 0.9876
-0.1903 2.8935 -1.1868 0.9875
-0.6058 2.8539 -1.1941 0.9875
-0.8113 2.8116 -1.1977 0.9874
-1.1135 2.7201 -1.2029 0.9874
-1.4051 2.5957 -1.2080 0.9873
-1.4993 2.5471 -1.2097 0.9873
-1.5919 2.4950 -1.2113 0.9873
-0.9258 1.2443 -0.6348 0.9933
-0.9395 1.1725 -0.6149 0.9935
-0.9528 1.1054 -0.5973 0.9937
-1.0241 1.1054 -0.6167 0.9935
-1.2708 1.1054 -0.6893 0.9927
-1.3668 1.1054 -0.7194 0.9924
-1.6289 1.1343 -0.8124 0.9915
-2.6874 1.3476 -1.2304 0.9871
-2.7807 1.1530 -1.2320 0.9871
-2.8594 0.9517 -1.2334 0.9871
-2.8931 0.8490 -1.2340 0.9871
-3.0127 0.2119 -1.2361 0.9870
-3.0186 0.1037 -1.2362 0.9870
-3.0205 -0.0046 -1.2362 0.9870
-3.0120 -0.2211 -1.2361 0.9870
-3.0017 -0.3290 -1.2359 0.9870
-1.6084 -0.2942 -0.6692 0.9930
-1.1341 -0.3366 -0.4842 0.9949
-1.0917 -0.5033 -0.4920 0.9948
-1.0839 -0.5477 -0.4970 0.9948
-2.6307 -1.4500 -1.2294 0.9871
-2.5750 -1.5422 -1.2284 0.9871
-2.5159 -1.6322 -1.2274 0.9871
-2.3037 -1.7413 -1.1819 0.9876
-2.0074 -1.7570 -1.0918 0.9885
-1.6982 -1.9824 -1.0683 0.9888
-1.6240 -2.0396 -1.0670 0.9888
-1.4699 -2.1453 -1.0643 0.9888
-1.1418 -2.3209 -1.0586 0.9889
-1.0564 -2.3570 -1.0571 0.9889
-0.6144 -2.4894 -1.0494 0.9890
-0.3419 -2.5295 -1.0447 0.9890
-0.1592 -2.5397 -1.0415 0.9891
0.0232 -2.5368 -1.0383 0.9891
0.1675 -2.0670 -0.8487 0.9911
0.2419 -2.0629 -0.8501 0.9911
0.3834 -2.4922 -1.0320 0.9892
0.4718 -2.4732 -1.0305 0.9892
0.7315 -2.3976 -1.0259 0.9892
1.0608 -2.2556 -1.0202 0.9893
1.2165 -2.1680 -1.0175 0.9893
1.2918 -2.1202 -1.0161 0.9893
1.4369 -2.0171 -1.0136 0.9894
1.5819 -1.9139 -1.0162 0.9893
2.6108 -0.0356 -1.1379 0.9887
2.6104 0.0580 -1.1379 0.9887
2.6068 0.1516 -1.1380 0.9887
2.5766 0.4309 -1.1385 0.9887
2.5601 0.5232 -1.1388 0.9887
2.4917 0.7960 -1.1400 0.9887
2.3572 1.1465 -1.1423 0.9886
2.3160 1.2310 -1.1431 0.9886
1.7619 1.1054 -0.9065 0.9910
1.6290 1.1054 -0.8580 0.9914
1.5095 1.1054 -0.8154 0.9919
1.4093 1.1118 -0.7823 0.9922
1.4120 1.1985 -0.8072 0.9920
1.8194 1.9167 -1.1517 0.9885
1.7513 1.9827 -1.1529 0.9885
1.6082 2.1077 -1.1554 0.9885
1.5333 2.1665 -1.1567 0.9885
0.9551 2.5012 -1.1668 0.9884
0.8660 2.5372 -1.1684 0.9884
0.7755 2.5701 -1.1700 0.9884
0.6837 2.5998 -1.1716 0.9883
0.4970 2.6495 -1.1748 0.9883
0.4022 2.6693 -1.1765 0.9883
0.2104 2.6990 -1.1798 0.9883
0.1136 2.7086 -1.1815 0.9882
-0.1787 2.7169 -1.1866 0.9882
-0.2764 2.7126 -1.1883 0.9882
-0.3741 2.7048 -1.1900 0.9882
-0.7613 2.6384 -1.1968 0.9881
-0.8567 2.6131 -1.1984 0.9881
-0.9511 2.5842 -1.2001 0.9881
-1.0446 2.5519 -1.2017 0.9880
-1.3179 2.4345 -1.2065 0.9880
-1.4061 2.3888 -1.2080 0.9880
-1.4928 2.3397 -1.2096 0.9880
-0.9068 1.2188 -0.6621 0.9934
-1.0241 1.1054 -0.6567 0.9934
-1.1004 1.1054 -0.6798 0.9932
-1.3668 1.1054 -0.7661 0.9924
-1.4718 1.1054 -0.8022 0.9920
-2.4172 1.4376 -1.2257 0.9878
-2.5629 1.1721 -1.2282 0.9878
-2.6434 0.9865 -1.2296 0.9878
-2.7098 0.7952 -1.2308 0.9878
-2.8216 0.1984 -1.2327 0.9877
-2.8271 0.0971 -1.2328 0.9877
-2.8289 -0.0044 -1.2329 0.9877
-2.8210 -0.2071 -1.2327 0.9877
-2.7979 -0.4087 -1.2323 0.9877
-1.6150 -0.2954 -0.7155 0.9929
-1.0877 -0.3228 -0.4945 0.9951
-1.0826 -0.3641 -0.4978 0.9950
-1.0769 -0.4057 -0.5015 0.9950
-2.4647 -1.3585 -1.2265 0.9878
-2.2991 -1.6116 -1.2236 0.9878
-2.1349 -1.7375 -1.1996 0.9881
-1.3783 -2.0116 -1.0628 0.9894
-1.1972 -2.0481 -1.0339 0.9897
-1.1181 -2.0807 -1.0294 0.9897
-1.0710 -2.1770 -1.0574 0.9895
-0.9910 -2.2111 -1.0560 0.9895
-0.5766 -2.3363 -1.0488 0.9896
-0.4918 -2.3522 -1.0473 0.9896
-0.3210 -2.3746 -1.0443 0.9896
-0.0638 -2.3850 -1.0398 0.9896
0.0218 -2.3824 -1.0383 0.9897
0.6070 -2.2796 -1.0281 0.9898
0.6874 -2.2533 -1.0267 0.9898
0.8449 -2.1923 -1.0239 0.9898
0.9218 -2.1578 -1.0226 0.9898
0.9973 -2.1206 -1.0213 0.9898
1.1439 -2.0385 -1.0187 0.9899
1.2840 -1.9466 -1.0163 0.9899
1.3514 -1.8971 -1.0151 0.9899
1.4170 -1.8453 -1.0140 0.9899
1.4806 -1.7913 -1.0128 0.9899
2.4633 0.0547 -1.1405 0.9892
2.4599 0.1431 -1.1406 0.9892
2.3756 0.6660 -1.1420 0.9892
2.3511 0.7510 -1.1425 0.9892
2.2932 0.9185 -1.1435 0.9892
2.2599 1.0006 -1.1440 0.9892
2.2238 1.0816 -1.1447 0.9892
2.1849 1.1614 -1.1454 0.9892
1.9109 1.1054 -1.0218 0.9903
1.6290 1.1054 -0.9113 0.9914
1.4183 1.1189 -0.8362 0.9921
1.4246 1.2092 -0.8649 0.9918
1.4315 1.3063 -0.8970 0.9915
1.6514 1.8696 -1.1547 0.9891
1.5162 1.9872 -1.1570 0.9890
1.4455 2.0425 -1.1583 0.9890
1.3728 2.0953 -1.1595 0.9890
1.2219 2.1933 -1.1622 0.9890
0.9000 2.3568 -1.1678 0.9889
0.7306 2.4214 -1.1707 0.9889
0.6441 2.4492 -1.1723 0.9889
0.5566 2.4740 -1.1738 0.9889
0.3788 2.5141 -1.1769 0.9889
0.0155 2.5561 -1.1832 0.9888
-0.0763 2.5585 -1.1848 0.9888
-0.1682 2.5576 -1.1864 0.9888
-0.2602 2.5534 -1.1880 0.9888
-0.4438 2.5350 -1.1912 0.9887
-0.5351 2.5208 -1.1928 0.9887
-0.8060 2.4584 -1.1976 0.9887
-0.8948 2.4311 -1.1991 0.9886
-0.9826 2.4005 -1.2006 0.9886
-1.2394 2.2896 -1.2051 0.9886
-0.9528 1.1054 -0.6755 0.9936
-1.1004 1.1054 -0.7220 0.9931
-1.2708 1.1054 -0.7796 0.9926
-1.3668 1.1054 -0.8137 0.9923
-1.4718 1.1054 -0.8520 0.9919
-1.6454 1.1459 -0.9281 0.9912
-2.2711 1.3507 -1.2231 0.9884
-2.3197 1.2693 -1.2240 0.9884
-2.3653 1.1860 -1.2248 0.9884
-2.4831 0.9267 -1.2268 0.9884
-2.5159 0.8374 -1.2274 0.9884
-2.5454 0.7470 -1.2279 0.9884
-2.5715 0.6554 -1.2284 0.9884
-2.6292 0.3757 -1.2294 0.9884
-2.6553 0.0912 -1.2298 0.9884
-2.6570 -0.0041 -1.2299 0.9884
-2.6550 -0.0994 -1.2298 0.9884
-2.6496 -0.1945 -1.2297 0.9884
-1.6218 -0.2966 -0.7632 0.9928
-1.4281 -0.3145 -0.6769 0.9936
-1.0605 -0.3148 -0.5120 0.9951
-1.0495 -0.3953 -0.5191 0.9951
-1.0358 -0.4775 -0.5279 0.9950
-2.3156 -1.2764 -1.2239 0.9884
-2.2668 -1.3576 -1.2231 0.9884
-2.2150 -1.4370 -1.2222 0.9884
-2.1604 -1.5143 -1.2212 0.9884
-1.6147 -1.7536 -1.1034 0.9895
-1.5070 -1.7593 -1.0723 0.9898
-1.3645 -1.8458 -1.0625 0.9899
-1.2259 -1.9345 -1.0601 0.9900
-0.8558 -2.1092 -1.0536 0.9900
-0.5426 -2.1984 -1.0482 0.9901
-0.3826 -2.2257 -1.0454 0.9901
-0.2215 -2.2414 -1.0426 0.9901
-0.1407 -2.2449 -1.0411 0.9901
-0.0601 -2.2454 -1.0397 0.9901
0.0205 -2.2431 -1.0383 0.9902
0.2418 -2.0620 -0.9610 0.9909
0.3392 -2.2052 -1.0328 0.9902
0.4175 -2.1887 -1.0314 0.9902
0.4951 -2.1695 -1.0301 0.9902
0.5719 -2.1476 -1.0287 0.9903
0.6477 -2.1229 -1.0274 0.9903
0.7225 -2.0957 -1.0261 0.9903
1.0782 -1.9215 -1.0199 0.9903
1.1451 -1.8794 -1.0187 0.9903
1.2741 -1.7885 -1.0165 0.9904
2.3260 0.1353 -1.1429 0.9897
2.3199 0.2186 -1.1430 0.9897
2.1969 0.7897 -1.1451 0.9897
2.1366 0.9460 -1.1462 0.9896
2.0655 1.0979 -1.1474 0.9896
1.9109 1.1054 -1.0829 0.9902
1.6290 1.1054 -0.9657 0.9913
1.5095 1.1054 -0.9178 0.9917
1.4309 1.1288 -0.8940 0.9919
1.4716 1.3428 -0.9772 0.9912
1.6801 1.6473 -1.1542 0.9896
1.6214 1.7080 -1.1552 0.9896
1.5605 1.7667 -1.1563 0.9896
1.4976 1.8233 -1.1574 0.9895
1.4326 1.8776 -1.1585 0.9895
1.2264 2.0269 -1.1621 0.9895
1.0803 2.1142 -1.1646 0.9895
1.0050 2.1541 -1.1660 0.9895
0.9281 2.1912 -1.1673 0.9895
0.8499 2.2257 -1.1687 0.9894
0.5255 2.3356 -1.1743 0.9894
0.3576 2.3732 -1.1773 0.9894
-0.2455 2.4090 -1.1878 0.9893
-0.5904 2.3610 -1.1938 0.9892
-0.9265 2.2634 -1.1997 0.9892
-1.1684 2.1583 -1.2039 0.9891
-0.8743 1.2676 -0.7553 0.9932
-0.8810 1.1842 -0.7240 0.9934
-0.9528 1.1054 -0.7158 0.9935
-1.0241 1.1054 -0.7392 0.9933
-1.1004 1.1054 -0.7651 0.9931
-1.1823 1.1054 -0.7939 0.9928
-1.2708 1.1054 -0.8262 0.9925
-1.4718 1.1054 -0.9029 0.9918
-2.2675 1.0370 -1.2231 0.9890
-2.3045 0.9555 -1.2237 0.9889
-2.3692 0.7886 -1.2248 0.9889
-2.3969 0.7034 -1.2253 0.9889
-2.4872 0.2648 -1.2269 0.9889
-2.5002 0.0859 -1.2271 0.9889
-2.5017 -0.0039 -1.2272 0.9889
-2.4999 -0.0936 -1.2271 0.9889
-2.4948 -0.1832 -1.2270 0.9889
-1.6289 -0.2979 -0.8122 0.9926
-1.4281 -0.3145 -0.7173 0.9935
-1.2183 -0.3145 -0.6172 0.9944
-1.0597 -0.3145 -0.5422 0.9951
-1.0288 -0.3460 -0.5324 0.9952
-1.0229 -0.3853 -0.5362 0.9951
-0.9924 -0.5470 -0.5558 0.9950
-2.1350 -1.2787 -1.2208 0.9890
-1.9244 -1.5662 -1.2171 0.9890
-1.8654 -1.6328 -1.2161 0.9890
-1.7180 -1.7364 -1.1982 0.9892
-1.6047 -1.7427 -1.1620 0.9895
-1.3963 -1.7536 -1.0996 0.9901
-1.2998 -1.7583 -1.0726 0.9903
-1.2214 -1.7827 -1.0600 0.9904
-1.0881 -1.8616 -1.0577 0.9904
-0.8788 -1.9609 -1.0540 0.9905
-0.8070 -1.9887 -1.0528 0.9905
-0.6607 -2.0365 -1.0502 0.9905
-0.5865 -2.0564 -1.0489 0.9905
-0.4365 -2.0879 -1.0463 0.9905
-0.2850 -2.1085 -1.0437 0.9906
-0.2089 -2.1147 -1.0423 0.9906
-0.1328 -2.1181 -1.0410 0.9906
-0.0567 -2.1188 -1.0397 0.9906
0.0951 -2.1120 -1.0370 0.9906
0.1676 -2.0682 -1.0178 0.9908
0.2418 -2.0616 -1.0182 0.9908
0.3202 -2.0816 -1.0331 0.9907
0.4674 -2.0482 -1.0305 0.9907
0.5399 -2.0277 -1.0293 0.9907
0.6116 -2.0045 -1.0280 0.9907
0.6822 -1.9789 -1.0268 0.9907
0.8204 -1.9204 -1.0244 0.9907
0.8877 -1.8876 -1.0232 0.9907
1.0185 -1.8151 -1.0209 0.9908
1.2489 -1.7532 -1.0559 0.9905
1.4404 -1.7427 -1.1090 0.9900
2.2065 0.0490 -1.1450 0.9901
2.2034 0.1282 -1.1450 0.9901
2.1976 0.2071 -1.1451 0.9901
2.1778 0.3642 -1.1455 0.9901
2.1056 0.6726 -1.1467 0.9901
2.0536 0.8225 -1.1476 0.9901
2.0237 0.8960 -1.1482 0.9901
1.9913 0.9685 -1.1487 0.9901
1.6290 1.1054 -1.0213 0.9912
1.5095 1.1054 -0.9706 0.9916
1.5033 1.2760 -1.0230 0.9912
1.4774 1.6726 -1.1577 0.9900
1.4177 1.7260 -1.1587 0.9900
1.2927 1.8266 -1.1609 0.9900
1.2276 1.8737 -1.1621 0.9900
1.1608 1.9184 -1.1632 0.9899
0.9510 2.0384 -1.1669 0.9899
0.8042 2.1059 -1.1695 0.9899
0.4971 2.2094 -1.1748 0.9898
0.4180 2.2284 -1.1762 0.9898
0.1768 2.2685 -1.1804 0.9898
-0.0681 2.2826 -1.1847 0.9898
-0.1501 2.2814 -1.1861 0.9898
-0.2321 2.2773 -1.1875 0.9897
-0.3140 2.2703 -1.1890 0.9897
-0.4771 2.2473 -1.1918 0.9897
-0.5580 2.2314 -1.1932 0.9897
-0.6384 2.2125 -1.1946 0.9897
-0.7972 2.1661 -1.1974 0.9897
-0.8754 2.1385 -1.1988 0.9896
-0.9526 2.1081 -1.2001 0.9896
-1.0287 2.0749 -1.2015 0.9896
-1.1037 2.0389 -1.2028 0.9896
-1.1774 2.0001 -1.2040 0.9896
-0.8857 1.1054 -0.7348 0.9936
-0.9528 1.1054 -0.7571 0.9934
-1.2708 1.1054 -0.8738 0.9924
-1.4718 1.1054 -0.9549 0.9917
-1.9253 1.3407 -1.2171 0.9895
-2.1401 0.9787 -1.2209 0.9895
-2.2620 0.6638 -1.2230 0.9894
-2.2851 0.5824 -1.2234 0.9894
-2.3222 0.4174 -1.2240 0.9894
-2.3547 0.1656 -1.2246 0.9894
-2.3607 -0.0036 -1.2247 0.9894
-2.3542 -0.1728 -1.2246 0.9894
-2.3462 -0.2571 -1.2244 0.9894
-2.3351 -0.3411 -1.2243 0.9894
-1.2183 -0.3145 -0.6527 0.9943
-1.0030 -0.3373 -0.5490 0.9952
-0.9971 -0.3756 -0.5528 0.9952
-0.9682 -0.5337 -0.5735 0.9950
-1.9210 -1.3465 -1.2170 0.9895
-1.8701 -1.4135 -1.2161 0.9895
-1.8168 -1.4786 -1.2152 0.9895
-1.7612 -1.5416 -1.2142 0.9895
-1.7034 -1.6024 -1.2132 0.9895
-1.4885 -1.7377 -1.1870 0.9897
-1.3880 -1.7431 -1.1560 0.9900
-1.2008 -1.7525 -1.1021 0.9905
-1.1131 -1.7565 -1.0788 0.9907
-0.9631 -1.7922 -1.0555 0.9909
-0.8303 -1.8526 -1.0532 0.9909
-0.2694 -1.9931 -1.0434 0.9910
-0.1975 -1.9991 -1.0421 0.9910
0.0183 -2.0015 -1.0384 0.9910
0.2323 -1.9808 -1.0346 0.9911
0.3028 -1.9688 -1.0334 0.9911
0.3728 -1.9544 -1.0322 0.9911
0.4422 -1.9375 -1.0310 0.9911
0.5786 -1.8964 -1.0286 0.9911
0.6455 -1.8723 -1.0274 0.9911
0.7114 -1.8459 -1.0263 0.9911
0.7763 -1.8172 -1.0251 0.9911
0.8401 -1.7862 -1.0240 0.9911
0.9070 -1.7616 -1.0279 0.9911
