ply
format ascii 1.0
element vertex 1384
property float32 x
property float32 y
property float32 z
property float32 CosAngle
property uint32 ObjIdx
property uint32 ObjTag
end_header
-5.7260 5.2831 -1.2835 0.1499 0 7
-5.9287 5.0877 -1.2870 0.1495 0 7
-6.1241 4.8840 -1.2904 0.1491 0 7
-6.3118 4.6723 -1.2937 0.1487 0 7
-6.4915 4.4530 -1.2968 0.1483 0 7
-6.6629 4.2263 -1.2998 0.1480 0 7
-6.8255 3.9925 -1.3027 0.1477 0 7
-6.9790 3.7520 -1.3053 0.1474 0 7
-7.1232 3.5053 -1.3079 0.1471 0 7
-7.2577 3.2525 -1.3102 0.1468 0 7
-7.3823 2.9943 -1.3124 0.1466 0 7
-7.4966 2.7309 -1.3144 0.1463 0 7
-7.6005 2.4628 -1.3162 0.1461 0 7
-7.6937 2.1904 -1.3178 0.1460 0 7
-7.7760 1.9143 -1.3193 0.1458 0 7
-7.8472 1.6348 -1.3205 0.1457 0 7
-7.9072 1.3525 -1.3215 0.1455 0 7
-7.9558 1.0678 -1.3224 0.1455 0 7
-7.9930 0.7813 -1.3230 0.1454 0 7
-8.0187 0.4933 -1.3235 0.1453 0 7
-8.0327 0.2045 -1.3237 0.1453 0 7
-8.0351 -0.0846 -1.3238 0.1453 0 7
-8.0259 -0.3736 -1.3236 0.1453 0 7
-8.0051 -0.6619 -1.3233 0.1454 0 7
-7.9727 -0.9491 -1.3227 0.1454 0 7
-7.9288 -1.2346 -1.3219 0.1455 0 6
-7.8735 -1.5180 -1.3210 0.1456 0 7
-7.5548 -1.7406 -1.2772 0.2444 0 8
-6.7835 -1.8223 -1.1571 0.1459 0 8
-6.7057 -2.0627 -1.1558 0.1461 0 14
-6.6184 -2.2996 -1.1542 0.1463 0 14
-5.3483 -2.0768 -0.9452 0.9889 0 19
-6.4162 -2.7611 -1.1507 0.1467 0 14
-6.3017 -2.9850 -1.1487 0.1470 0 14
-3.9788 -2.0631 -0.7383 0.7543 0 19
-3.9294 -2.2204 -0.7435 0.6062 0 19
-5.9078 -3.6248 -1.1418 0.1478 0 14
-5.7606 -3.8264 -1.1393 0.1482 0 14
-5.6059 -4.0216 -1.1366 0.1485 0 14
-2.6758 -2.0694 -0.5573 0.2630 0 19
-2.5242 -2.1015 -0.5411 0.9454 0 19
-5.1000 -4.5665 -1.1277 0.1497 0 14
-2.2875 -2.2016 -0.5230 0.4126 0 19
-4.7312 -4.8933 -1.1213 0.1506 0 14
-4.5385 -5.0452 -1.1179 0.1510 0 14
-3.9042 -4.6675 -1.0025 0.8779 0 19
-4.7147 -6.0673 -1.2658 0.1520 0 7
-4.4787 -6.2127 -1.2617 0.1525 0 7
-4.2381 -6.3486 -1.2575 0.1530 0 7
-1.2810 -2.0770 -0.4020 0.5809 0 19
-1.1721 -2.0631 -0.3909 0.9799 0 19
-1.1072 -2.1232 -0.3945 0.7605 0 19
-3.2380 -6.7953 -1.2400 0.1551 0 7
-2.9806 -6.8823 -1.2355 0.1557 0 7
-2.7210 -6.9595 -1.2310 0.1563 0 7
-2.4597 -7.0268 -1.2265 0.1568 0 7
-2.1971 -7.0841 -1.2219 0.1574 0 7
-1.2534 -4.6232 -0.7891 0.7828 0 19
-1.0885 -4.6749 -0.7907 0.5786 0 19
-1.4049 -7.1972 -1.2080 0.1592 0 7
-1.1407 -7.2155 -1.2034 0.1598 0 7
-0.8769 -7.2241 -1.1988 0.1604 0 7
-0.6141 -7.2232 -1.1942 0.1611 0 7
-0.3525 -7.2130 -1.1897 0.1617 0 7
-0.0924 -7.1934 -1.1851 0.1623 0 7
0.1086 -4.6911 -0.7730 0.4003 0 19
0.1232 -2.0815 -0.3435 0.9330 0 19
0.1958 -2.0519 -0.3396 0.9438 0 19
0.2743 -2.0798 -0.3456 0.8567 0 19
1.1742 -6.9615 -1.1630 0.1654 0 7
0.7283 -3.5370 -0.5949 0.9689 0 5
1.6596 -6.8091 -1.1546 0.1666 0 7
1.8966 -6.7208 -1.1504 0.1672 0 7
1.5129 -4.7061 -0.8144 0.6394 0 19
1.6708 -4.6197 -0.8093 0.7312 0 19
2.5826 -6.4099 -1.1384 0.1690 0 7
2.8021 -6.2915 -1.1346 0.1695 0 7
3.0166 -6.1662 -1.1309 0.1701 0 7
3.2261 -6.0341 -1.1272 0.1706 0 7
1.2832 -2.2055 -0.4203 0.3482 0 19
2.9425 -4.6628 -0.9083 0.8059 0 19
1.5114 -2.2143 -0.4417 0.1969 0 19
1.5351 -2.0838 -0.4264 0.9555 0 19
1.6356 -2.0606 -0.4334 0.4825 0 19
3.8314 -4.4857 -0.9718 0.1737 0 14
5.7176 0.7431 -1.0837 0.2017 0 7
5.6897 0.9487 -1.0842 0.2016 0 7
5.6551 1.1535 -1.0848 0.2015 0 7
5.6136 1.3571 -1.0855 0.2014 0 7
5.5655 1.5594 -1.0864 0.2012 0 7
5.5106 1.7602 -1.0873 0.2010 0 7
5.4491 1.9592 -1.0884 0.2008 0 7
5.3810 2.1564 -1.0896 0.2006 0 7
5.3062 2.3514 -1.0909 0.2004 0 7
5.2250 2.5441 -1.0923 0.2001 0 7
5.1372 2.7343 -1.0939 0.1998 0 7
5.0431 2.9217 -1.0955 0.1995 0 7
4.9426 3.1062 -1.0972 0.1992 0 7
4.8359 3.2876 -1.0991 0.1989 0 7
1.7884 1.3123 -0.4169 0.0408 47 10
4.6038 3.6402 -1.1032 0.1982 0 7
4.4787 3.8110 -1.1053 0.1978 0 7
4.3477 3.9779 -1.1076 0.1974 0 7
4.2108 4.1407 -1.1100 0.1969 0 7
4.0682 4.2991 -1.1125 0.1965 0 7
3.9200 4.4530 -1.1151 0.1960 0 7
3.7663 4.6022 -1.1178 0.1956 0 7
3.6072 4.7465 -1.1206 0.1951 0 7
3.4429 4.8857 -1.1234 0.1946 0 7
3.2735 5.0196 -1.1264 0.1941 0 7
3.0991 5.1480 -1.1294 0.1935 0 7
2.9199 5.2707 -1.1326 0.1930 0 7
2.7361 5.3876 -1.1358 0.1925 0 7
2.5479 5.4984 -1.1390 0.1919 0 7
2.3553 5.6030 -1.1424 0.1913 0 7
2.1587 5.7012 -1.1458 0.1908 0 7
1.9581 5.7928 -1.1493 0.1902 0 6
1.7539 5.8777 -1.1529 0.1896 0 7
1.5461 5.9556 -1.1565 0.1890 0 7
1.3351 6.0266 -1.1602 0.1884 0 7
1.1210 6.0902 -1.1640 0.1878 0 7
0.9041 6.1466 -1.1677 0.1872 0 7
0.6846 6.1954 -1.1716 0.1866 0 7
0.4627 6.2365 -1.1754 0.1860 0 7
0.2388 6.2699 -1.1794 0.1854 0 7
0.0132 6.2954 -1.1833 0.1847 0 7
-0.2141 6.3129 -1.1873 0.1841 0 7
-0.4425 6.3223 -1.1912 0.1835 0 7
-0.6720 6.3234 -1.1953 0.1829 0 7
-0.9021 6.3163 -1.1993 0.1823 0 7
-1.1325 6.3008 -1.2033 0.1817 0 7
-1.3630 6.2769 -1.2073 0.1811 0 7
-1.5933 6.2445 -1.2113 0.1805 0 7
-1.8229 6.2036 -1.2153 0.1799 0 7
-2.0517 6.1542 -1.2193 0.1793 0 7
-2.2792 6.0962 -1.2233 0.1787 0 7
-2.5051 6.0296 -1.2272 0.1781 0 7
-2.7291 5.9545 -1.2312 0.1776 0 7
-2.9508 5.8708 -1.2350 0.1770 0 7
-3.1699 5.7787 -1.2389 0.1764 0 6
-3.3860 5.6782 -1.2426 0.1759 0 7
-3.5988 5.5693 -1.2463 0.1754 0 7
-3.8080 5.4521 -1.2500 0.1749 0 7
-4.0132 5.3268 -1.2536 0.1744 0 7
-4.2140 5.1934 -1.2571 0.1739 0 7
-4.4101 5.0522 -1.2605 0.1734 0 7
-4.6011 4.9032 -1.2638 0.1730 0 7
-4.7868 4.7466 -1.2671 0.1725 0 7
-4.9668 4.5826 -1.2702 0.1721 0 7
-5.1407 4.4115 -1.2733 0.1717 0 7
-5.3082 4.2333 -1.2762 0.1713 0 7
-5.4691 4.0485 -1.2790 0.1709 0 7
-5.6230 3.8572 -1.2817 0.1706 0 7
-5.7697 3.6597 -1.2842 0.1702 0 7
-5.9087 3.4563 -1.2867 0.1699 0 7
-6.0400 3.2472 -1.2890 0.1696 0 7
-6.1632 3.0328 -1.2911 0.1693 0 7
-6.2781 2.8135 -1.2931 0.1690 0 7
-6.3844 2.5895 -1.2950 0.1688 0 7
-6.4819 2.3612 -1.2967 0.1686 0 7
-6.5705 2.1290 -1.2982 0.1684 0 7
-6.6499 1.8933 -1.2996 0.1682 0 7
-6.7201 1.6543 -1.3008 0.1680 0 7
-6.7808 1.4126 -1.3019 0.1679 0 7
-6.8319 1.1686 -1.3028 0.1678 0 7
-6.8733 0.9225 -1.3035 0.1677 0 7
-6.9050 0.6749 -1.3040 0.1676 0 7
-6.9268 0.4262 -1.3044 0.1676 0 7
-6.9388 0.1767 -1.3046 0.1676 0 7
-6.9408 -0.0731 -1.3047 0.1675 0 7
-6.9330 -0.3227 -1.3045 0.1676 0 7
-6.9152 -0.5718 -1.3042 0.1676 0 7
-6.8876 -0.8199 -1.3037 0.1677 0 7
-6.8502 -1.0667 -1.3031 0.1678 0 7
-6.8031 -1.3116 -1.3023 0.1679 0 7
-6.7464 -1.5544 -1.3013 0.1680 0 7
-6.4780 -1.7402 -1.2608 0.2813 0 8
-5.7965 -1.7831 -1.1399 0.1683 0 8
-5.7221 -1.9882 -1.1386 0.1685 0 14
-5.3470 -2.0763 -1.0781 0.6787 0 19
-5.5496 -2.3882 -1.1356 0.1689 0 14
-5.4519 -2.5824 -1.1339 0.1692 0 14
-3.9780 -2.0627 -0.8422 0.7514 0 19
-3.9270 -2.2191 -0.8478 0.6042 0 19
-5.1152 -3.1385 -1.1280 0.1701 0 14
-4.9892 -3.3140 -1.1258 0.1704 0 14
-4.8568 -3.4842 -1.1235 0.1708 0 14
-2.6773 -2.0706 -0.6362 0.2619 0 19
-2.5232 -2.1007 -0.6171 0.9420 0 19
-4.4231 -3.9604 -1.1159 0.1719 0 14
-4.2673 -4.1069 -1.1132 0.1723 0 14
-2.0953 -2.1671 -0.5666 0.2147 0 19
-3.9406 -4.3806 -1.1075 0.1732 0 14
-3.7703 -4.5074 -1.1045 0.1737 0 14
-3.5958 -4.6273 -1.1015 0.1742 0 14
-3.4172 -4.7403 -1.0984 0.1747 0 14
-3.2351 -4.8461 -1.0952 0.1752 0 14
-1.2813 -2.0775 -0.4588 0.5785 0 19
-1.1719 -2.0627 -0.4459 0.9761 0 19
-1.1066 -2.1222 -0.4499 0.7578 0 19
-1.0149 -2.1299 -0.4435 0.4084 0 19
-2.5982 -5.9995 -1.2289 0.1779 0 7
-2.3731 -6.0696 -1.2249 0.1785 0 7
-2.1462 -6.1312 -1.2210 0.1790 0 7
-1.9180 -6.1842 -1.2170 0.1796 0 7
-1.2536 -4.6241 -0.9005 0.7796 0 19
-1.0878 -4.6719 -0.9016 0.5767 0 19
-1.2282 -6.2920 -1.2050 0.1814 0 7
-0.9977 -6.3109 -1.2009 0.1820 0 7
-0.7674 -6.3215 -1.1969 0.1826 0 7
-0.5376 -6.3238 -1.1929 0.1832 0 7
-0.3087 -6.3178 -1.1889 0.1839 0 7
-0.0809 -6.3036 -1.1849 0.1845 0 7
0.1087 -4.6955 -0.8828 0.3983 0 19
0.1233 -2.0818 -0.3920 0.9291 0 19
0.1958 -2.0522 -0.3875 0.9399 0 19
0.2742 -2.0794 -0.3942 0.8535 0 19
1.0313 -6.1145 -1.1655 0.1876 0 7
0.7284 -3.5373 -0.6788 0.9650 0 5
1.4589 -5.9859 -1.1581 0.1888 0 7
1.4640 -5.1877 -1.0132 0.1894 0 8
1.5138 -4.7088 -0.9297 0.6365 0 19
1.6704 -4.6187 -0.9232 0.7285 0 19
1.9960 -4.9539 -1.0039 0.1911 0 14
2.1665 -4.8644 -1.0009 0.1917 0 14
2.3333 -4.7694 -0.9980 0.1922 0 14
1.1741 -2.1960 -0.4681 0.3553 0 19
2.6552 -4.5634 -0.9924 0.1933 0 14
2.8100 -4.4528 -0.9897 0.1939 0 14
1.5143 -2.2185 -0.5049 0.1958 0 19
1.5354 -2.0842 -0.4866 0.9516 0 19
1.6351 -2.0600 -0.4943 0.4808 0 19
3.3850 -3.9631 -0.9796 0.1958 0 14
5.1321 0.6670 -1.0939 0.2237 0 7
5.1068 0.8515 -1.0944 0.2236 0 7
5.0754 1.0353 -1.0949 0.2235 0 7
5.0379 1.2179 -1.0956 0.2234 0 7
4.9943 1.3994 -1.0963 0.2232 0 7
4.9446 1.5794 -1.0972 0.2230 0 7
4.8889 1.7578 -1.0982 0.2228 0 7
4.8272 1.9345 -1.0993 0.2226 0 7
4.7596 2.1092 -1.1004 0.2224 0 7
4.6861 2.2817 -1.1017 0.2221 0 7
2.0307 1.0808 -0.4863 0.4960 47 10
1.9080 1.1054 -0.4661 0.4905 47 10
1.7589 1.1054 -0.4391 0.5206 47 10
1.6884 1.1478 -0.4315 0.3738 47 10
1.6652 1.2219 -0.4366 0.3695 47 10
1.6402 1.2969 -0.4420 0.3649 47 10
4.0119 3.4138 -1.1135 0.2198 0 7
3.8937 3.5625 -1.1156 0.2194 0 7
3.7702 3.7074 -1.1177 0.2190 0 7
3.6417 3.8484 -1.1200 0.2185 0 7
3.5082 3.9852 -1.1223 0.2181 0 7
3.3698 4.1177 -1.1247 0.2176 0 7
3.2266 4.2457 -1.1272 0.2171 0 7
3.0788 4.3690 -1.1298 0.2166 0 7
2.9265 4.4875 -1.1324 0.2161 0 7
2.7698 4.6009 -1.1352 0.2156 0 7
2.6089 4.7092 -1.1380 0.2151 0 7
2.4439 4.8122 -1.1409 0.2145 0 7
2.2751 4.9097 -1.1438 0.2140 0 7
2.1025 5.0015 -1.1468 0.2134 0 7
1.9263 5.0875 -1.1499 0.2128 0 7
1.7468 5.1675 -1.1530 0.2122 0 7
1.5640 5.2415 -1.1562 0.2117 0 7
1.3783 5.3092 -1.1595 0.2111 0 7
1.1898 5.3706 -1.1628 0.2105 0 7
0.9986 5.4254 -1.1661 0.2099 0 7
0.8051 5.4737 -1.1695 0.2093 0 7
0.6094 5.5151 -1.1729 0.2087 0 7
0.4118 5.5498 -1.1763 0.2080 0 7
0.2125 5.5774 -1.1798 0.2074 0 7
0.0117 5.5981 -1.1833 0.2068 0 7
-0.1903 5.6115 -1.1868 0.2062 0 7
-0.3932 5.6178 -1.1904 0.2056 0 7
-0.5969 5.6167 -1.1939 0.2050 0 7
-0.8010 5.6083 -1.1975 0.2044 0 7
-1.0052 5.5924 -1.2011 0.2038 0 7
-1.2093 5.5691 -1.2046 0.2032 0 7
-1.4131 5.5383 -1.2082 0.2026 0 7
-1.6162 5.4999 -1.2117 0.2020 0 7
-1.8183 5.4541 -1.2153 0.2014 0 7
-2.0191 5.4007 -1.2188 0.2008 0 7
-2.2184 5.3397 -1.2222 0.2002 0 7
-2.4159 5.2713 -1.2257 0.1997 0 7
-2.6113 5.1953 -1.2291 0.1991 0 7
-2.8042 5.1120 -1.2325 0.1986 0 7
-2.9943 5.0213 -1.2358 0.1980 0 7
-3.1814 4.9233 -1.2391 0.1975 0 7
-3.3652 4.8181 -1.2423 0.1970 0 7
-3.5453 4.7058 -1.2454 0.1965 0 7
-3.7215 4.5864 -1.2485 0.1960 0 7
-3.8934 4.4603 -1.2515 0.1955 0 7
-4.0608 4.3274 -1.2544 0.1951 0 7
-4.2234 4.1879 -1.2572 0.1947 0 7
-4.3809 4.0421 -1.2600 0.1942 0 7
-4.5331 3.8900 -1.2626 0.1938 0 7
-4.6795 3.7320 -1.2652 0.1934 0 7
-4.8201 3.5681 -1.2677 0.1931 0 7
-4.9545 3.3986 -1.2700 0.1927 0 7
-5.0825 3.2238 -1.2722 0.1924 0 7
-5.2039 3.0439 -1.2744 0.1920 0 7
-5.3183 2.8592 -1.2764 0.1917 0 7
-5.4257 2.6699 -1.2782 0.1915 0 7
-5.5258 2.4764 -1.2800 0.1912 0 7
-5.6184 2.2788 -1.2816 0.1910 0 6
-5.7034 2.0776 -1.2831 0.1907 0 7
-5.7805 1.8730 -1.2844 0.1905 0 7
-5.8496 1.6654 -1.2856 0.1904 0 7
-5.9106 1.4551 -1.2867 0.1902 0 7
-5.9634 1.2424 -1.2876 0.1901 0 7
-6.0079 1.0276 -1.2884 0.1899 0 7
-6.0439 0.8112 -1.2890 0.1899 0 7
-6.0715 0.5934 -1.2895 0.1898 0 7
-6.0904 0.3747 -1.2898 0.1897 0 7
-6.1008 0.1554 -1.2900 0.1897 0 7
-6.1026 -0.0643 -1.2900 0.1897 0 7
-6.0958 -0.2837 -1.2899 0.1897 0 7
-6.0804 -0.5028 -1.2897 0.1898 0 7
-6.0564 -0.7210 -1.2892 0.1898 0 7
-6.0239 -0.9380 -1.2887 0.1899 0 7
-5.9829 -1.1535 -1.2880 0.1900 0 7
-5.9335 -1.3671 -1.2871 0.1901 0 7
-5.8759 -1.5785 -1.2861 0.1903 0 7
-5.6547 -1.7394 -1.2506 0.3175 0 8
-5.0657 -1.7601 -1.1336 0.3619 0 8
-4.9628 -1.9271 -1.1253 0.1909 0 14
-4.8843 -2.1019 -1.1240 0.1911 0 14
-4.7991 -2.2732 -1.1225 0.1913 0 14
-3.9772 -2.0622 -0.9470 0.7482 0 19
-3.9246 -2.2177 -0.9529 0.6018 0 19
-4.5056 -2.7644 -1.1174 0.1922 0 14
-4.3956 -2.9197 -1.1154 0.1926 0 14
-4.2800 -3.0704 -1.1134 0.1929 0 14
-2.6789 -2.0718 -0.7158 0.2605 0 19
-2.5222 -2.0998 -0.6937 0.9382 0 19
-3.9009 -3.4928 -1.1068 0.1941 0 14
-3.7646 -3.6231 -1.1044 0.1945 0 14
-3.6237 -3.7479 -1.1020 0.1949 0 14
-3.4785 -3.8669 -1.0994 0.1954 0 14
-3.3292 -3.9801 -1.0968 0.1958 0 14
-3.1761 -4.0873 -1.0942 0.1963 0 14
-3.0194 -4.1884 -1.0914 0.1968 0 14
-2.8594 -4.2834 -1.0886 0.1973 0 14
-1.2816 -2.0781 -0.5161 0.5757 0 19
-1.1717 -2.0624 -0.5014 0.9719 0 19
-1.1061 -2.1212 -0.5057 0.7548 0 19
-2.1917 -4.5995 -1.0770 0.1994 0 14
-2.0191 -4.6623 -1.0740 0.2000 0 14
-1.8448 -4.7185 -1.0709 0.2006 0 14
-1.6691 -4.7681 -1.0679 0.2011 0 14
-1.4921 -4.8111 -1.0648 0.2017 0 14
-1.2539 -4.6250 -1.0129 0.7759 0 19
-1.0871 -4.6689 -1.0133 0.5745 0 19
-0.9566 -4.9005 -1.0554 0.2035 0 14
-0.7773 -4.9171 -1.0523 0.2041 0 14
-0.5981 -4.9272 -1.0492 0.2047 0 14
-0.4192 -4.9308 -1.0460 0.2053 0 14
-0.2408 -4.9280 -1.0429 0.2059 0 14
-0.0632 -4.9188 -1.0398 0.2066 0 14
0.1088 -4.6998 -0.9937 0.3962 0 19
0.1233 -2.0822 -0.4409 0.9248 0 19
0.1958 -2.0525 -0.4358 0.9355 0 19
0.2742 -2.0790 -0.4433 0.8498 0 19
0.8062 -4.7799 -1.0246 0.2096 0 14
0.7285 -3.5377 -0.7635 0.9606 0 5
0.5279 -2.1660 -0.4712 0.1064 0 19
1.3054 -4.6255 -1.0159 0.2114 0 14
1.4669 -4.5629 -1.0131 0.2120 0 14
1.6256 -4.4948 -1.0103 0.2126 0 14
1.7815 -4.4215 -1.0076 0.2132 0 14
1.9343 -4.3430 -1.0050 0.2137 0 14
1.0559 -2.1584 -0.5079 0.2402 0 19
2.2301 -4.1711 -0.9998 0.2148 0 14
2.3728 -4.0780 -0.9973 0.2154 0 14
2.5118 -3.9803 -0.9949 0.2159 0 14
1.5172 -2.2227 -0.5688 0.1945 0 19
1.5356 -2.0845 -0.5473 0.9472 0 19
1.6345 -2.0593 -0.5557 0.4788 0 19
3.0291 -3.5463 -0.9858 0.2179 0 14
4.6512 0.6045 -1.1023 0.2456 0 7
4.6281 0.7717 -1.1027 0.2455 0 7
4.5995 0.9382 -1.1032 0.2454 0 7
4.5652 1.1036 -1.1038 0.2453 0 7
4.5254 1.2680 -1.1045 0.2451 0 7
4.4801 1.4310 -1.1053 0.2449 0 7
4.4292 1.5925 -1.1062 0.2447 0 7
4.3729 1.7524 -1.1072 0.2445 0 7
4.3112 1.9105 -1.1083 0.2443 0 7
4.2442 2.0665 -1.1094 0.2440 0 7
2.0969 1.1160 -0.5583 0.4779 47 10
1.9080 1.1054 -0.5182 0.4880 47 10
1.7589 1.1054 -0.4882 0.5180 47 10
1.6259 1.1054 -0.4621 0.5473 47 10
1.5985 1.1730 -0.4660 0.6353 47 10
1.5855 1.2536 -0.4750 0.6232 47 10
1.5713 1.3370 -0.4849 0.6106 47 10
3.5223 3.2227 -1.1220 0.2413 0 7
3.4100 3.3532 -1.1240 0.2409 0 7
3.2931 3.4800 -1.1260 0.2404 0 7
3.1718 3.6030 -1.1282 0.2400 0 7
3.0460 3.7221 -1.1304 0.2395 0 7
2.9159 3.8369 -1.1326 0.2390 0 7
2.7818 3.9475 -1.1350 0.2385 0 7
2.6435 4.0536 -1.1374 0.2380 0 7
2.5014 4.1552 -1.1399 0.2375 0 7
2.3555 4.2519 -1.1424 0.2370 0 7
2.2061 4.3438 -1.1450 0.2364 0 7
2.0531 4.4307 -1.1477 0.2359 0 7
1.8969 4.5124 -1.1504 0.2353 0 7
1.7375 4.5888 -1.1532 0.2348 0 7
1.5751 4.6598 -1.1560 0.2342 0 7
1.4100 4.7252 -1.1589 0.2336 0 7
1.2422 4.7849 -1.1618 0.2330 0 7
1.0720 4.8389 -1.1648 0.2324 0 7
0.8995 4.8869 -1.1678 0.2318 0 7
0.7250 4.9289 -1.1709 0.2312 0 7
0.5486 4.9648 -1.1739 0.2306 0 7
0.3706 4.9945 -1.1771 0.2300 0 7
0.1912 5.0179 -1.1802 0.2294 0 7
0.0105 5.0350 -1.1833 0.2288 0 7
-0.1711 5.0456 -1.1865 0.2282 0 7
-0.3535 5.0497 -1.1897 0.2276 0 7
-0.5364 5.0472 -1.1929 0.2270 0 7
-0.7195 5.0381 -1.1961 0.2264 0 7
-0.9027 5.0223 -1.1993 0.2257 0 7
-1.0857 4.9999 -1.2025 0.2251 0 7
-1.2683 4.9707 -1.2057 0.2246 0 7
-1.4501 4.9348 -1.2088 0.2240 0 7
-1.6310 4.8922 -1.2120 0.2234 0 7
-1.8106 4.8429 -1.2151 0.2228 0 7
-1.9887 4.7868 -1.2182 0.2222 0 7
-2.1651 4.7241 -1.2213 0.2217 0 7
-2.3395 4.6547 -1.2244 0.2211 0 7
-2.5116 4.5787 -1.2274 0.2206 0 7
-2.6812 4.4962 -1.2303 0.2201 0 7
-2.8479 4.4072 -1.2332 0.2195 0 7
-3.0116 4.3118 -1.2361 0.2190 0 7
-3.1720 4.2102 -1.2389 0.2185 0 7
-3.3287 4.1024 -1.2416 0.2180 0 7
-3.4816 3.9885 -1.2443 0.2176 0 7
-3.6304 3.8688 -1.2469 0.2171 0 7
-3.7749 3.7432 -1.2494 0.2167 0 7
-3.9148 3.6120 -1.2519 0.2163 0 7
-4.0498 3.4753 -1.2542 0.2159 0 7
-4.1798 3.3334 -1.2565 0.2155 0 7
-4.3044 3.1864 -1.2587 0.2151 0 7
-4.4236 3.0344 -1.2607 0.2147 0 7
-4.5370 2.8778 -1.2627 0.2144 0 7
-4.6445 2.7168 -1.2646 0.2141 0 7
-4.7459 2.5515 -1.2664 0.2138 0 7
-4.8409 2.3822 -1.2680 0.2135 0 7
-4.9295 2.2091 -1.2696 0.2133 0 6
-5.0114 2.0326 -1.2710 0.2130 0 7
-5.0866 1.8529 -1.2723 0.2128 0 7
-5.1548 1.6703 -1.2735 0.2126 0 7
-5.2159 1.4850 -1.2746 0.2124 0 7
-5.2698 1.2973 -1.2755 0.2123 0 7
-5.3165 1.1076 -1.2763 0.2121 0 7
-5.3558 0.9161 -1.2770 0.2120 0 7
-5.3876 0.7231 -1.2776 0.2119 0 7
-5.4119 0.5290 -1.2780 0.2118 0 7
-5.4287 0.3340 -1.2783 0.2118 0 7
-5.4379 0.1385 -1.2784 0.2118 0 7
-5.4395 -0.0573 -1.2785 0.2118 0 7
-5.4334 -0.2529 -1.2784 0.2118 0 7
-5.4198 -0.4482 -1.2781 0.2118 0 7
-5.3986 -0.6427 -1.2778 0.2119 0 7
-5.3699 -0.8362 -1.2773 0.2120 0 7
-5.3337 -1.0283 -1.2766 0.2121 0 7
-5.2901 -1.2188 -1.2759 0.2122 0 6
-5.2391 -1.4074 -1.2750 0.2123 0 7
-5.1810 -1.5937 -1.2740 0.2125 0 7
-5.0031 -1.7384 -1.2448 0.3529 0 8
-4.5226 -1.7562 -1.1402 0.3853 0 8
-4.3569 -1.8749 -1.1148 0.2131 0 8
-4.2816 -2.0281 -1.1135 0.2134 0 14
-3.9764 -2.0618 -1.0527 0.7446 0 19
-3.9222 -2.2163 -1.0588 0.5992 0 19
-4.0217 -2.4675 -1.1089 0.2143 0 14
-3.9243 -2.6066 -1.1072 0.2146 0 14
-3.8218 -2.7417 -1.1054 0.2149 0 14
-2.6805 -2.0730 -0.7964 0.2591 0 19
-2.5212 -2.0990 -0.7710 0.9339 0 19
-3.4855 -3.1209 -1.0996 0.2161 0 14
-3.3645 -3.2380 -1.0974 0.2165 0 14
-3.2393 -3.3503 -1.0953 0.2169 0 14
-3.1103 -3.4576 -1.0930 0.2174 0 14
-2.9776 -3.5597 -1.0907 0.2179 0 14
-2.8413 -3.6565 -1.0883 0.2183 0 14
-2.7019 -3.7480 -1.0859 0.2188 0 14
-2.5594 -3.8339 -1.0834 0.2193 0 14
-1.2820 -2.0786 -0.5740 0.5727 0 19
-1.1715 -2.0621 -0.5574 0.9672 0 19
-1.1056 -2.1201 -0.5620 0.7514 0 19
-1.9639 -4.1215 -1.0730 0.2214 0 14
-1.8098 -4.1790 -1.0703 0.2220 0 14
-1.6541 -4.2306 -1.0676 0.2226 0 14
-0.7573 -2.1635 -0.5387 0.2427 0 19
-0.6832 -2.2027 -0.5420 0.2412 0 19
-1.1794 -4.3502 -1.0593 0.2243 0 14
-1.0194 -4.3783 -1.0565 0.2249 0 14
-0.8589 -4.4004 -1.0537 0.2255 0 14
-0.6982 -4.4167 -1.0509 0.2261 0 14
-0.5374 -4.4271 -1.0481 0.2267 0 14
-0.3768 -4.4316 -1.0453 0.2273 0 14
-0.2165 -4.4304 -1.0425 0.2279 0 14
-0.0568 -4.4235 -1.0397 0.2285 0 14
0.1021 -4.4109 -1.0369 0.2291 0 14
0.1233 -2.0825 -0.4903 0.9200 0 19
0.1959 -2.0529 -0.4847 0.9307 0 19
0.2741 -2.0787 -0.4928 0.8457 0 19
0.7261 -4.3049 -1.0260 0.2316 0 14
0.7285 -3.5380 -0.8490 0.9557 0 5
1.0285 -4.2197 -1.0208 0.2328 0 14
1.1766 -4.1694 -1.0182 0.2334 0 14
1.3226 -4.1141 -1.0156 0.2340 0 14
1.4661 -4.0538 -1.0131 0.2345 0 14
1.6071 -3.9887 -1.0107 0.2351 0 14
1.7454 -3.9189 -1.0083 0.2357 0 14
1.8808 -3.8446 -1.0059 0.2362 0 14
2.0133 -3.7657 -1.0036 0.2368 0 14
2.1427 -3.6825 -1.0013 0.2373 0 14
2.2688 -3.5951 -0.9991 0.2378 0 14
1.5201 -2.2270 -0.6337 0.1932 0 19
1.5359 -2.0848 -0.6086 0.9423 0 19
1.6340 -2.0586 -0.6177 0.4765 0 19
2.7384 -3.2060 -0.9909 0.2398 0 14
4.2489 0.5522 -1.1094 0.2674 0 7
4.2277 0.7049 -1.1097 0.2673 0 7
4.2013 0.8569 -1.1102 0.2672 0 7
4.1698 1.0081 -1.1107 0.2670 0 7
4.1332 1.1581 -1.1114 0.2669 0 7
4.0916 1.3069 -1.1121 0.2667 0 7
4.0448 1.4543 -1.1129 0.2665 0 7
3.9931 1.6002 -1.1138 0.2663 0 7
3.9365 1.7444 -1.1148 0.2661 0 7
3.8749 1.8867 -1.1159 0.2658 0 7
2.0768 1.1054 -0.6092 0.4548 47 10
1.9080 1.1054 -0.5709 0.4853 47 10
1.7589 1.1054 -0.5379 0.5151 47 10
1.6259 1.1054 -0.5091 0.5443 47 10
1.5518 1.1387 -0.4984 0.6508 47 10
1.5383 1.2163 -0.5078 0.6388 47 10
1.5236 1.2964 -0.5180 0.6262 47 10
3.2127 2.9394 -1.1274 0.2631 0 7
3.1098 3.0580 -1.1292 0.2627 0 7
3.0027 3.1731 -1.1311 0.2622 0 7
2.8915 3.2847 -1.1331 0.2618 0 7
2.7764 3.3926 -1.1351 0.2613 0 7
2.6574 3.4967 -1.1371 0.2608 0 7
2.5346 3.5968 -1.1393 0.2603 0 7
2.4082 3.6928 -1.1415 0.2598 0 7
2.2783 3.7846 -1.1438 0.2593 0 7
2.1450 3.8720 -1.1461 0.2588 0 7
2.0085 3.9548 -1.1485 0.2583 0 7
1.8689 4.0331 -1.1509 0.2577 0 7
1.7263 4.1066 -1.1534 0.2572 0 7
1.5809 4.1752 -1.1559 0.2566 0 7
1.4328 4.2388 -1.1585 0.2560 0 7
1.2823 4.2973 -1.1611 0.2554 0 7
1.1295 4.3507 -1.1638 0.2549 0 7
0.9744 4.3987 -1.1665 0.2543 0 7
0.8175 4.4413 -1.1693 0.2537 0 7
0.6587 4.4784 -1.1720 0.2531 0 7
0.4983 4.5100 -1.1748 0.2525 0 7
0.3366 4.5359 -1.1776 0.2519 0 7
0.1736 4.5560 -1.1805 0.2513 0 7
0.0095 4.5704 -1.1834 0.2506 0 7
-0.1553 4.5789 -1.1862 0.2500 0 7
-0.3207 4.5814 -1.1891 0.2494 0 7
-0.4865 4.5781 -1.1920 0.2488 0 7
-0.6525 4.5687 -1.1949 0.2482 0 7
-0.8184 4.5532 -1.1978 0.2476 0 7
-0.9841 4.5318 -1.2007 0.2470 0 7
-1.1492 4.5042 -1.2036 0.2464 0 7
-1.3137 4.4706 -1.2065 0.2459 0 7
-1.4772 4.4309 -1.2093 0.2453 0 7
-1.6394 4.3851 -1.2121 0.2447 0 7
-1.8003 4.3333 -1.2149 0.2441 0 7
-1.9595 4.2755 -1.2177 0.2436 0 7
-2.1169 4.2117 -1.2205 0.2430 0 7
-2.2721 4.1420 -1.2232 0.2425 0 7
-2.4249 4.0664 -1.2258 0.2420 0 7
-2.5751 3.9850 -1.2285 0.2414 0 7
-2.7225 3.8979 -1.2310 0.2409 0 7
-2.8668 3.8052 -1.2336 0.2404 0 7
-3.0079 3.7070 -1.2360 0.2400 0 7
-3.1454 3.6034 -1.2384 0.2395 0 7
-1.2325 1.3134 -0.4664 0.3645 47 10
-1.3443 1.3330 -0.4902 0.0991 47 10
-3.5347 3.2613 -1.2452 0.2382 0 7
-3.6559 3.1373 -1.2473 0.2378 0 7
-3.7726 3.0086 -1.2494 0.2374 0 7
-3.8844 2.8754 -1.2513 0.2370 0 7
-3.9913 2.7379 -1.2532 0.2367 0 7
-4.0930 2.5962 -1.2550 0.2363 0 7
-4.1894 2.4505 -1.2566 0.2360 0 7
-4.2802 2.3011 -1.2582 0.2357 0 6
-4.3654 2.1482 -1.2597 0.2355 0 7
-4.4448 1.9919 -1.2611 0.2352 0 7
-4.5181 1.8326 -1.2624 0.2350 0 7
-4.5854 1.6704 -1.2636 0.2347 0 7
-4.6464 1.5056 -1.2646 0.2345 0 7
-4.7011 1.3384 -1.2656 0.2344 0 7
-4.7494 1.1692 -1.2664 0.2342 0 7
-4.7912 0.9981 -1.2672 0.2341 0 7
-4.8263 0.8255 -1.2678 0.2340 0 7
-4.8548 0.6516 -1.2683 0.2339 0 7
-4.8766 0.4766 -1.2686 0.2338 0 7
-4.8916 0.3009 -1.2689 0.2338 0 7
-4.8998 0.1248 -1.2690 0.2337 0 7
-4.9012 -0.0516 -1.2691 0.2337 0 7
-4.8958 -0.2279 -1.2690 0.2337 0 7
-4.8836 -0.4038 -1.2688 0.2338 0 7
-4.8646 -0.5791 -1.2684 0.2338 0 7
-4.8389 -0.7535 -1.2680 0.2339 0 7
-4.8065 -0.9267 -1.2674 0.2340 0 7
-4.7675 -1.0984 -1.2667 0.2342 0 7
-4.7220 -1.2685 -1.2659 0.2343 0 6
-4.6699 -1.4365 -1.2650 0.2345 0 7
-4.6115 -1.6023 -1.2640 0.2347 0 7
-4.4734 -1.7371 -1.2425 0.3873 0 8
-4.0741 -1.7532 -1.1484 0.4191 0 8
-3.8608 -1.8288 -1.1061 0.2353 0 8
-3.7882 -1.9643 -1.1048 0.2356 0 14
-3.7105 -2.0967 -1.1035 0.2359 0 14
-3.6279 -2.2259 -1.1020 0.2362 0 14
-3.5406 -2.3518 -1.1005 0.2365 0 14
-3.4486 -2.4740 -1.0989 0.2369 0 14
-2.6821 -2.0742 -0.8779 0.2575 0 19
-2.5202 -2.0982 -0.8491 0.9290 0 19
-3.1468 -2.8176 -1.0936 0.2380 0 14
-3.0381 -2.9239 -1.0918 0.2384 0 14
-2.9257 -3.0259 -1.0898 0.2389 0 14
-2.8097 -3.1234 -1.0878 0.2393 0 14
-2.6903 -3.2163 -1.0857 0.2398 0 14
-2.5678 -3.3045 -1.0835 0.2402 0 14
-2.4423 -3.3879 -1.0814 0.2407 0 14
-2.3140 -3.4664 -1.0791 0.2412 0 14
-1.2823 -2.0792 -0.6325 0.5693 0 19
-1.1713 -2.0618 -0.6140 0.9620 0 19
-1.1050 -2.1191 -0.6188 0.7476 0 19
-1.7773 -3.7298 -1.0697 0.2433 0 14
-1.6382 -3.7827 -1.0673 0.2439 0 14
-1.4976 -3.8304 -1.0649 0.2445 0 14
-1.3557 -3.8727 -1.0624 0.2450 0 14
-1.2126 -3.9098 -1.0599 0.2456 0 14
-1.0686 -3.9415 -1.0574 0.2462 0 14
-0.9239 -3.9679 -1.0548 0.2468 0 14
-0.7786 -3.9890 -1.0523 0.2474 0 14
-0.6331 -4.0047 -1.0498 0.2480 0 14
-0.4874 -4.0152 -1.0472 0.2486 0 14
-0.3418 -4.0203 -1.0447 0.2492 0 14
-0.1964 -4.0202 -1.0421 0.2498 0 14
-0.0516 -4.0149 -1.0396 0.2504 0 14
0.0927 -4.0045 -1.0371 0.2510 0 14
0.1233 -2.0829 -0.5402 0.9147 0 19
0.1959 -2.0532 -0.5340 0.9254 0 19
0.2741 -2.0783 -0.5428 0.8412 0 19
0.6598 -3.9120 -1.0272 0.2534 0 14
0.7286 -3.5383 -0.9354 0.9503 0 5
0.9350 -3.8364 -1.0224 0.2546 0 14
1.0700 -3.7916 -1.0200 0.2552 0 14
1.2030 -3.7421 -1.0177 0.2558 0 14
1.3338 -3.6881 -1.0154 0.2564 0 14
1.4624 -3.6296 -1.0132 0.2569 0 14
1.5886 -3.5669 -1.0110 0.2575 0 14
1.7123 -3.5000 -1.0088 0.2580 0 14
1.8332 -3.4289 -1.0067 0.2586 0 14
1.9514 -3.3538 -1.0047 0.2591 0 14
2.0667 -3.2749 -1.0026 0.2596 0 14
1.5230 -2.2313 -0.6995 0.1917 0 19
1.5361 -2.0852 -0.6706 0.9369 0 19
1.6335 -2.0580 -0.6803 0.4740 0 19
2.4962 -2.9225 -0.9951 0.2616 0 14
3.9069 0.5078 -1.1153 0.2890 0 7
3.8873 0.6482 -1.1157 0.2889 0 7
3.8630 0.7879 -1.1161 0.2888 0 7
3.8339 0.9268 -1.1166 0.2887 0 7
3.8000 1.0647 -1.1172 0.2885 0 7
3.7615 1.2015 -1.1179 0.2883 0 7
3.7184 1.3369 -1.1186 0.2881 0 7
3.6706 1.4710 -1.1195 0.2879 0 7
3.6183 1.6034 -1.1204 0.2877 0 7
2.1555 1.0495 -0.6787 0.7145 47 10
2.0768 1.1054 -0.6660 0.4521 47 10
1.9080 1.1054 -0.6242 0.4823 47 10
1.7589 1.1054 -0.5881 0.5120 47 10
1.6259 1.1054 -0.5566 0.5410 47 10
1.5092 1.1075 -0.5299 0.7998 47 10
1.5015 1.1873 -0.5419 0.7821 47 10
1.4931 1.2705 -0.5550 0.7637 47 10
2.9502 2.6993 -1.1320 0.2847 0 7
2.8554 2.8078 -1.1337 0.2843 0 7
2.7567 2.9132 -1.1354 0.2839 0 7
2.6543 3.0152 -1.1372 0.2834 0 7
2.5482 3.1138 -1.1390 0.2830 0 7
2.4386 3.2088 -1.1410 0.2825 0 7
2.3256 3.3002 -1.1429 0.2820 0 7
2.2093 3.3877 -1.1450 0.2815 0 7
2.0898 3.4714 -1.1470 0.2810 0 7
1.9672 3.5509 -1.1492 0.2805 0 7
1.8416 3.6263 -1.1514 0.2800 0 7
1.7133 3.6974 -1.1536 0.2794 0 7
1.5823 3.7641 -1.1559 0.2789 0 7
1.4488 3.8263 -1.1582 0.2783 0 7
1.3129 3.8839 -1.1606 0.2777 0 7
1.1747 3.9367 -1.1630 0.2771 0 7
1.0345 3.9848 -1.1655 0.2766 0 7
0.8923 4.0280 -1.1679 0.2760 0 7
0.7484 4.0662 -1.1705 0.2754 0 7
0.6030 4.0994 -1.1730 0.2748 0 7
0.4561 4.1274 -1.1756 0.2742 0 7
0.3079 4.1503 -1.1781 0.2736 0 7
0.1588 4.1679 -1.1808 0.2730 0 7
0.0087 4.1801 -1.1834 0.2724 0 7
-0.1420 4.1870 -1.1860 0.2718 0 7
-0.2932 4.1885 -1.1886 0.2712 0 7
-0.4447 4.1845 -1.1913 0.2706 0 7
-0.5963 4.1751 -1.1939 0.2700 0 7
-0.7478 4.1601 -1.1966 0.2694 0 7
-0.8989 4.1396 -1.1992 0.2688 0 7
-1.0496 4.1136 -1.2018 0.2682 0 7
-1.1995 4.0821 -1.2045 0.2676 0 7
-1.3485 4.0450 -1.2071 0.2670 0 7
-1.4964 4.0024 -1.2096 0.2665 0 7
-1.6429 3.9543 -1.2122 0.2659 0 7
-1.7878 3.9007 -1.2147 0.2654 0 7
-1.9309 3.8418 -1.2172 0.2648 0 7
-2.0721 3.7774 -1.2197 0.2643 0 7
-2.2111 3.7078 -1.2221 0.2637 0 7
-2.3476 3.6329 -1.2245 0.2632 0 7
-2.4815 3.5529 -1.2268 0.2627 0 7
-2.6126 3.4678 -1.2291 0.2622 0 7
-1.0938 1.3480 -0.4914 0.3759 47 10
-1.1275 1.2916 -0.4854 0.3806 47 10
-1.1593 1.2354 -0.4796 0.3852 47 10
-1.1893 1.1793 -0.4742 0.3896 47 10
-1.2177 1.1235 -0.4690 0.3939 47 10
-1.2881 1.1054 -0.4805 0.6266 47 10
-1.4989 1.1954 -0.5427 0.3893 47 10
-1.4804 1.0958 -0.5214 0.4053 47 10
-3.6322 2.4916 -1.2469 0.2585 0 7
-3.7243 2.3623 -1.2485 0.2582 0 7
-3.8115 2.2295 -1.2501 0.2579 0 6
-3.8937 2.0933 -1.2515 0.2576 0 7
-3.9708 1.9540 -1.2528 0.2573 0 7
-4.0426 1.8117 -1.2541 0.2570 0 7
-4.1089 1.6666 -1.2552 0.2568 0 7
-4.1697 1.5189 -1.2563 0.2566 0 7
-4.2249 1.3690 -1.2573 0.2564 0 7
-4.2744 1.2169 -1.2581 0.2562 0 7
-4.3180 1.0630 -1.2589 0.2560 0 7
-4.3557 0.9074 -1.2596 0.2559 0 7
-4.3875 0.7505 -1.2601 0.2558 0 7
-4.4132 0.5923 -1.2606 0.2557 0 7
-4.4329 0.4333 -1.2609 0.2556 0 7
-4.4464 0.2736 -1.2611 0.2556 0 7
-4.4539 0.1134 -1.2613 0.2556 0 7
-4.4551 -0.0469 -1.2613 0.2556 0 7
-4.4503 -0.2072 -1.2612 0.2556 0 7
-4.4393 -0.3671 -1.2610 0.2556 0 7
-4.4221 -0.5264 -1.2607 0.2557 0 7
-4.3989 -0.6850 -1.2603 0.2558 0 7
-4.3696 -0.8425 -1.2598 0.2559 0 7
-4.3344 -0.9986 -1.2592 0.2560 0 7
-4.2932 -1.1533 -1.2585 0.2561 0 7
-4.2461 -1.3062 -1.2576 0.2563 0 7
-4.1933 -1.4570 -1.2567 0.2565 0 7
-4.1348 -1.6056 -1.2557 0.2567 0 7
-4.0331 -1.7356 -1.2430 0.4208 0 8
-3.6952 -1.7503 -1.1575 0.4518 0 8
-3.4460 -1.7868 -1.0989 0.2574 0 8
-3.3888 -1.9149 -1.1019 0.5170 0 8
-3.3009 -2.0253 -1.0963 0.2580 0 14
-3.2219 -2.1401 -1.0950 0.2584 0 14
-3.1386 -2.2516 -1.0935 0.2587 0 14
-2.6837 -2.0755 -0.9604 0.2558 0 19
-2.5191 -2.0973 -0.9280 0.9238 0 19
-2.8652 -2.5654 -1.0887 0.2598 0 14
-2.7666 -2.6626 -1.0870 0.2602 0 14
-2.6647 -2.7559 -1.0852 0.2607 0 14
-2.5594 -2.8452 -1.0834 0.2611 0 14
-2.4511 -2.9303 -1.0815 0.2616 0 14
-2.3399 -3.0112 -1.0796 0.2620 0 14
-2.2259 -3.0877 -1.0776 0.2625 0 14
-2.1094 -3.1598 -1.0755 0.2630 0 14
-1.2827 -2.0798 -0.6917 0.5657 0 19
-1.1711 -2.0614 -0.6712 0.9563 0 19
-1.1044 -2.1180 -0.6762 0.7434 0 19
-1.6214 -3.4026 -1.0670 0.2651 0 14
-1.4948 -3.4516 -1.0648 0.2657 0 14
-1.3668 -3.4958 -1.0626 0.2662 0 14
-1.2375 -3.5352 -1.0603 0.2668 0 14
-1.1071 -3.5697 -1.0580 0.2674 0 14
-0.9758 -3.5994 -1.0558 0.2680 0 14
-0.8439 -3.6243 -1.0535 0.2685 0 14
-0.7114 -3.6443 -1.0511 0.2691 0 14
-0.5785 -3.6594 -1.0488 0.2697 0 14
-0.4455 -3.6697 -1.0465 0.2703 0 14
-0.3125 -3.6752 -1.0442 0.2709 0 14
-0.1796 -3.6759 -1.0419 0.2715 0 14
-0.0471 -3.6718 -1.0395 0.2721 0 14
0.0848 -3.6630 -1.0372 0.2727 0 14
0.1233 -2.0832 -0.5908 0.9090 0 19
0.1959 -2.0535 -0.5840 0.9196 0 19
0.2740 -2.0779 -0.5933 0.8362 0 19
0.6041 -3.5814 -1.0282 0.2751 0 14
0.7287 -3.5387 -1.0228 0.9444 0 5
0.8564 -3.5135 -1.0238 0.2763 0 14
0.9801 -3.4731 -1.0216 0.2769 0 14
1.1022 -3.4284 -1.0195 0.2775 0 14
1.2223 -3.3796 -1.0174 0.2781 0 14
1.3404 -3.3267 -1.0153 0.2786 0 14
1.4563 -3.2698 -1.0133 0.2792 0 14
1.5699 -3.2090 -1.0113 0.2797 0 14
1.6811 -3.1443 -1.0094 0.2803 0 14
1.7898 -3.0760 -1.0075 0.2808 0 14
1.8958 -3.0041 -1.0056 0.2813 0 14
1.5260 -2.2357 -0.7663 0.1902 0 19
1.5364 -2.0855 -0.7333 0.9310 0 19
1.6329 -2.0573 -0.7436 0.4713 0 19
2.2913 -2.6826 -0.9987 0.2833 0 14
3.6125 0.4695 -1.1205 0.3105 0 7
3.5943 0.5993 -1.1208 0.3104 0 7
3.5716 0.7285 -1.1212 0.3103 0 7
3.5446 0.8569 -1.1217 0.3102 0 7
3.5132 0.9844 -1.1222 0.3100 0 7
3.4774 1.1107 -1.1228 0.3098 0 7
3.4374 1.2359 -1.1235 0.3096 0 7
3.3930 1.3597 -1.1243 0.3094 0 7
3.3444 1.4820 -1.1251 0.3092 0 7
2.1807 1.0618 -0.7460 0.7016 47 10
2.0768 1.1054 -0.7236 0.4491 47 10
1.9080 1.1054 -0.6782 0.4791 47 10
1.7589 1.1054 -0.6390 0.5086 47 10
1.6259 1.1054 -0.6047 0.5374 47 10
1.5064 1.1054 -0.5747 0.5655 47 10
1.4775 1.1682 -0.5793 0.7896 47 10
1.4686 1.2497 -0.5931 0.7713 47 10
1.4589 1.3348 -0.6082 0.7521 47 10
2.6369 2.5930 -1.1375 0.3058 0 7
2.5455 2.6900 -1.1391 0.3054 0 7
2.4506 2.7838 -1.1407 0.3050 0 7
2.3524 2.8745 -1.1425 0.3045 0 7
2.2509 2.9619 -1.1442 0.3040 0 7
2.1463 3.0458 -1.1461 0.3036 0 7
2.0387 3.1262 -1.1479 0.3031 0 7
1.9281 3.2029 -1.1499 0.3025 0 7
1.8148 3.2758 -1.1518 0.3020 0 7
1.6987 3.3448 -1.1539 0.3015 0 7
1.5801 3.4099 -1.1559 0.3010 0 7
1.4591 3.4709 -1.1581 0.3004 0 7
1.3357 3.5277 -1.1602 0.2998 0 7
1.2102 3.5802 -1.1624 0.2993 0 7
1.0827 3.6283 -1.1646 0.2987 0 7
0.9533 3.6721 -1.1669 0.2981 0 7
0.8222 3.7112 -1.1692 0.2975 0 7
0.6895 3.7458 -1.1715 0.2970 0 7
0.5554 3.7757 -1.1738 0.2964 0 7
0.4200 3.8009 -1.1762 0.2958 0 7
0.2835 3.8213 -1.1786 0.2952 0 7
0.1462 3.8368 -1.1810 0.2946 0 7
0.0080 3.8474 -1.1834 0.2940 0 7
-0.1307 3.8531 -1.1858 0.2934 0 7
-0.2698 3.8538 -1.1882 0.2928 0 7
-0.4091 3.8494 -1.1907 0.2922 0 7
-0.5484 3.8400 -1.1931 0.2916 0 7
-0.6876 3.8256 -1.1955 0.2910 0 7
-0.8265 3.8061 -1.1979 0.2904 0 7
-0.9648 3.7815 -1.2004 0.2898 0 7
-1.1025 3.7518 -1.2028 0.2892 0 7
-1.2392 3.7171 -1.2052 0.2887 0 7
-1.3748 3.6773 -1.2075 0.2881 0 7
-1.5092 3.6325 -1.2099 0.2875 0 7
-1.6420 3.5827 -1.2122 0.2870 0 7
-1.7732 3.5280 -1.2145 0.2865 0 7
-1.9025 3.4683 -1.2167 0.2859 0 7
-2.0298 3.4038 -1.2190 0.2854 0 7
-2.1548 3.3345 -1.2211 0.2849 0 7
-2.2773 3.2605 -1.2233 0.2844 0 7
-2.3973 3.1819 -1.2254 0.2839 0 7
-1.0555 1.3008 -0.5152 0.5730 47 10
-1.0749 1.2314 -0.5028 0.5873 47 10
-1.0935 1.1652 -0.4915 0.4057 47 10
-1.1225 1.1131 -0.4862 0.4101 47 10
-1.1980 1.1054 -0.5014 0.6481 47 10
-1.2881 1.1054 -0.5221 0.6225 47 10
-1.3861 1.1054 -0.5453 0.5960 47 10
-1.5390 1.1393 -0.5890 0.3872 47 10
-1.5199 1.0426 -0.5669 0.4023 47 10
-3.4129 2.1648 -1.2431 0.2799 0 7
-3.4925 2.0429 -1.2445 0.2795 0 7
-3.5675 1.9179 -1.2458 0.2792 0 7
-3.6377 1.7901 -1.2470 0.2790 0 7
-3.7032 1.6596 -1.2482 0.2787 0 7
-3.7637 1.5265 -1.2492 0.2785 0 7
-3.8191 1.3912 -1.2502 0.2783 0 7
-3.8694 1.2538 -1.2511 0.2781 0 7
-3.9145 1.1145 -1.2519 0.2779 0 7
-3.9542 0.9734 -1.2525 0.2777 0 7
-3.9886 0.8309 -1.2531 0.2776 0 7
-4.0175 0.6872 -1.2536 0.2775 0 7
-4.0410 0.5424 -1.2541 0.2774 0 7
-4.0589 0.3967 -1.2544 0.2773 0 7
-4.0712 0.2505 -1.2546 0.2773 0 7
-4.0780 0.1038 -1.2547 0.2773 0 7
-4.0791 -0.0429 -1.2547 0.2773 0 7
-4.0747 -0.1897 -1.2546 0.2773 0 7
-4.0647 -0.3361 -1.2545 0.2773 0 7
-4.0491 -0.4820 -1.2542 0.2774 0 7
-4.0279 -0.6272 -1.2538 0.2775 0 7
-4.0013 -0.7714 -1.2534 0.2776 0 7
-3.9691 -0.9145 -1.2528 0.2777 0 7
-3.9316 -1.0562 -1.2521 0.2778 0 7
-3.8887 -1.1962 -1.2514 0.2780 0 6
-3.8406 -1.3344 -1.2506 0.2782 0 7
-3.7873 -1.4707 -1.2496 0.2784 0 7
-3.7289 -1.6047 -1.2486 0.2786 0 7
-3.6604 -1.7339 -1.2458 0.4531 0 8
-3.3700 -1.7474 -1.1676 0.4835 0 8
-3.1139 -1.7596 -1.1001 0.5301 0 8
-3.0248 -1.8559 -1.0915 0.2797 0 8
-2.9526 -1.9612 -1.0903 0.2800 0 14
-2.8767 -2.0637 -1.0889 0.2804 0 14
-2.6853 -2.0767 -1.0441 0.2539 0 19
-2.5181 -2.0964 -1.0078 0.9180 0 19
-2.6270 -2.3522 -1.0846 0.2815 0 14
-2.5370 -2.4416 -1.0830 0.2819 0 14
-2.4438 -2.5275 -1.0814 0.2823 0 14
-2.3477 -2.6098 -1.0797 0.2828 0 14
-2.2486 -2.6882 -1.0780 0.2832 0 14
-2.1469 -2.7628 -1.0762 0.2837 0 14
-2.0427 -2.8335 -1.0744 0.2842 0 14
-1.9360 -2.9001 -1.0725 0.2847 0 14
-1.2830 -2.0803 -0.7518 0.5618 0 19
-1.1710 -2.0611 -0.7291 0.9501 0 19
-1.1039 -2.1169 -0.7343 0.7388 0 19
-1.4891 -3.1249 -1.0647 0.2868 0 14
-1.3731 -3.1705 -1.0627 0.2873 0 14
-1.2557 -3.2116 -1.0606 0.2879 0 14
-1.1371 -3.2484 -1.0586 0.2884 0 14
-1.0175 -3.2807 -1.0565 0.2890 0 14
-0.8970 -3.3086 -1.0544 0.2896 0 14
-0.7758 -3.3320 -1.0523 0.2902 0 14
-0.6541 -3.3510 -1.0501 0.2907 0 14
-0.5320 -3.3655 -1.0480 0.2913 0 14
-0.4098 -3.3756 -1.0459 0.2919 0 14
-0.2875 -3.3812 -1.0437 0.2925 0 14
-0.1653 -3.3824 -1.0416 0.2931 0 14
-0.0434 -3.3793 -1.0395 0.2937 0 14
0.0781 -3.3718 -1.0374 0.2943 0 14
0.1234 -2.0836 -0.6420 0.9028 0 19
0.1960 -2.0539 -0.6346 0.9133 0 19
0.2740 -2.0775 -0.6445 0.8308 0 19
0.5564 -3.2989 -1.0290 0.2967 0 14
0.6734 -3.2703 -1.0270 0.2973 0 14
0.7891 -3.2375 -1.0249 0.2979 0 14
0.9033 -3.2008 -1.0230 0.2985 0 14
1.0159 -3.1602 -1.0210 0.2990 0 14
1.1268 -3.1156 -1.0191 0.2996 0 14
1.2359 -3.0673 -1.0171 0.3002 0 14
1.3430 -3.0153 -1.0153 0.3007 0 14
1.4480 -2.9597 -1.0134 0.3013 0 14
1.5508 -2.9006 -1.0117 0.3018 0 14
1.6512 -2.8380 -1.0099 0.3023 0 14
1.7493 -2.7720 -1.0082 0.3028 0 14
1.5291 -2.2401 -0.8342 0.1885 0 19
1.5366 -2.0859 -0.7969 0.9247 0 19
1.6324 -2.0566 -0.8076 0.4683 0 19
2.1154 -2.4766 -1.0018 0.3048 0 14
3.3560 0.4362 -1.1249 0.3318 0 7
3.3390 0.5568 -1.1252 0.3317 0 7
3.3179 0.6768 -1.1256 0.3316 0 7
3.2927 0.7960 -1.1260 0.3315 0 7
3.2634 0.9144 -1.1266 0.3313 0 7
3.2301 1.0317 -1.1271 0.3312 0 7
3.1927 1.1480 -1.1278 0.3310 0 7
3.1514 1.2629 -1.1285 0.3308 0 7
3.1061 1.3764 -1.1293 0.3305 0 7
2.1828 1.0628 -0.8070 0.8514 47 10
2.0768 1.1054 -0.7820 0.4458 47 10
1.9080 1.1054 -0.7330 0.4757 47 10
1.7589 1.1054 -0.6905 0.5049 47 10
1.6259 1.1054 -0.6535 0.5335 47 10
1.5064 1.1054 -0.6211 0.5614 47 10
1.4538 1.1495 -0.6161 0.7967 47 10
1.4446 1.2292 -0.6305 0.7785 47 10
1.4344 1.3124 -0.6463 0.7595 47 10
2.4471 2.4063 -1.1408 0.3272 0 7
2.3620 2.4960 -1.1423 0.3268 0 7
2.2737 2.5829 -1.1438 0.3263 0 7
2.1824 2.6667 -1.1454 0.3259 0 7
2.0880 2.7475 -1.1471 0.3254 0 7
1.9907 2.8250 -1.1488 0.3249 0 7
1.8907 2.8992 -1.1505 0.3244 0 7
1.7879 2.9700 -1.1523 0.3239 0 7
1.6826 3.0372 -1.1542 0.3234 0 7
1.5748 3.1008 -1.1560 0.3229 0 7
1.4646 3.1607 -1.1580 0.3224 0 7
1.3523 3.2168 -1.1599 0.3218 0 7
1.2378 3.2690 -1.1619 0.3213 0 7
1.1213 3.3172 -1.1640 0.3207 0 7
1.0030 3.3614 -1.1660 0.3201 0 7
0.8830 3.4014 -1.1681 0.3195 0 7
0.7614 3.4372 -1.1702 0.3190 0 7
0.6384 3.4687 -1.1724 0.3184 0 7
0.5142 3.4959 -1.1745 0.3178 0 7
0.3888 3.5186 -1.1767 0.3172 0 7
0.2624 3.5370 -1.1789 0.3166 0 7
0.1353 3.5508 -1.1812 0.3160 0 7
0.0074 3.5601 -1.1834 0.3154 0 7
-0.1209 3.5648 -1.1856 0.3148 0 7
-0.2495 3.5649 -1.1879 0.3142 0 7
-0.3783 3.5603 -1.1901 0.3136 0 7
-0.5072 3.5511 -1.1924 0.3130 0 7
-0.6358 3.5372 -1.1946 0.3125 0 7
-0.7641 3.5186 -1.1969 0.3119 0 7
-0.8918 3.4953 -1.1991 0.3113 0 7
-1.0189 3.4674 -1.2013 0.3107 0 7
-1.1451 3.4348 -1.2035 0.3101 0 7
-1.2702 3.3975 -1.2057 0.3096 0 7
-1.3941 3.3556 -1.2079 0.3090 0 7
-1.5166 3.3091 -1.2100 0.3085 0 7
-1.6376 3.2581 -1.2121 0.3079 0 7
-1.7567 3.2025 -1.2142 0.3074 0 7
-1.8740 3.1426 -1.2162 0.3069 0 7
-1.9891 3.0782 -1.2182 0.3064 0 7
-2.1020 3.0095 -1.2202 0.3059 0 7
-0.9988 1.3257 -0.5517 0.5742 47 10
-1.0200 1.2570 -0.5381 0.5887 47 10
-1.0396 1.1909 -0.5255 0.6029 47 10
-1.0577 1.1272 -0.5138 0.6166 47 10
-1.1148 1.1054 -0.5218 0.6682 47 10
-1.1980 1.1054 -0.5418 0.6435 47 10
-1.2881 1.1054 -0.5642 0.6180 47 10
-1.3860 1.1054 -0.5893 0.5917 47 10
-1.4933 1.1054 -0.6176 0.5646 47 10
-1.5810 1.0845 -0.6373 0.3840 47 10
-3.1462 1.9956 -1.2384 0.3014 0 7
-3.2192 1.8831 -1.2397 0.3011 0 7
-3.2881 1.7677 -1.2409 0.3008 0 7
-3.3526 1.6498 -1.2420 0.3005 0 7
-3.4127 1.5294 -1.2431 0.3003 0 7
-3.4682 1.4067 -1.2441 0.3000 0 7
-3.5191 1.2819 -1.2449 0.2998 0 7
-3.5652 1.1552 -1.2458 0.2996 0 7
-3.6065 1.0268 -1.2465 0.2995 0 7
-3.6430 0.8968 -1.2471 0.2993 0 7
-3.6745 0.7655 -1.2477 0.2992 0 7
-3.7011 0.6330 -1.2481 0.2991 0 7
-3.7226 0.4996 -1.2485 0.2990 0 7
-3.7390 0.3655 -1.2488 0.2989 0 7
-3.7503 0.2307 -1.2490 0.2989 0 7
-3.7565 0.0957 -1.2491 0.2988 0 7
-3.7576 -0.0396 -1.2491 0.2988 0 7
-3.7535 -0.1747 -1.2490 0.2988 0 7
-3.7443 -0.3096 -1.2489 0.2989 0 7
-3.7300 -0.4440 -1.2486 0.2989 0 7
-3.7106 -0.5778 -1.2483 0.2990 0 7
-3.6862 -0.7107 -1.2479 0.2991 0 7
-3.6567 -0.8425 -1.2474 0.2992 0 7
-1.4656 -0.3937 -0.5045 0.4851 47 10
-1.4722 -0.4529 -0.5120 0.4780 47 10
-1.4798 -0.5142 -0.5207 0.4699 47 10
-3.4898 -1.3552 -1.2444 0.2999 0 7
-3.4362 -1.4787 -1.2435 0.3002 0 7
-3.3781 -1.6001 -1.2425 0.3004 0 7
-3.3154 -1.7191 -1.2414 0.3007 0 7
-3.0871 -1.7444 -1.1787 0.5138 0 8
-2.8610 -1.7554 -1.1157 0.5428 0 8
-2.7220 -1.8081 -1.0862 0.3016 0 8
-2.6522 -1.9027 -1.0850 0.3019 0 8
-2.5790 -1.9945 -1.0837 0.3023 0 14
-2.5025 -2.0835 -1.0824 0.3027 0 14
-2.4228 -2.1694 -1.0810 0.3030 0 14
-2.3400 -2.2521 -1.0796 0.3035 0 14
-2.2544 -2.3316 -1.0781 0.3039 0 14
-2.1659 -2.4078 -1.0765 0.3043 0 14
-2.0748 -2.4805 -1.0749 0.3048 0 14
-1.9812 -2.5496 -1.0733 0.3052 0 14
-1.8853 -2.6152 -1.0716 0.3057 0 14
-1.7871 -2.6770 -1.0699 0.3062 0 14
-1.2834 -2.0809 -0.8127 0.5576 0 19
-1.1708 -2.0607 -0.7878 0.9434 0 19
-1.1033 -2.1158 -0.7932 0.7339 0 19
-1.3753 -2.8862 -1.0627 0.3083 0 14
-1.2683 -2.9286 -1.0609 0.3088 0 14
-1.1601 -2.9671 -1.0590 0.3094 0 14
-1.0507 -3.0015 -1.0571 0.3099 0 14
-0.9403 -3.0318 -1.0551 0.3105 0 14
-0.8291 -3.0580 -1.0532 0.3111 0 14
-0.7172 -3.0801 -1.0512 0.3116 0 14
-0.6048 -3.0981 -1.0493 0.3122 0 14
-0.4920 -3.1120 -1.0473 0.3128 0 14
-0.3790 -3.1218 -1.0453 0.3134 0 14
-0.2659 -3.1275 -1.0434 0.3140 0 14
-0.1529 -3.1292 -1.0414 0.3146 0 14
-0.0401 -3.1267 -1.0394 0.3152 0 14
0.0722 -3.1202 -1.0375 0.3158 0 14
0.1234 -2.0839 -0.6939 0.8962 0 19
0.1960 -2.0542 -0.6859 0.9066 0 19
0.2739 -2.0771 -0.6964 0.8250 0 19
0.5152 -3.0547 -1.0297 0.3181 0 14
0.6236 -3.0286 -1.0278 0.3187 0 14
0.7309 -2.9987 -1.0260 0.3193 0 14
0.8368 -2.9651 -1.0241 0.3199 0 14
0.9412 -2.9279 -1.0223 0.3205 0 14
1.0441 -2.8870 -1.0205 0.3210 0 14
1.1453 -2.8427 -1.0187 0.3216 0 14
1.2447 -2.7948 -1.0170 0.3221 0 14
1.3423 -2.7436 -1.0153 0.3227 0 14
1.4377 -2.6892 -1.0136 0.3232 0 14
1.5311 -2.6314 -1.0120 0.3237 0 14
1.6222 -2.5706 -1.0104 0.3242 0 14
1.5322 -2.2447 -0.9034 0.1868 0 19
1.5369 -2.0862 -0.8613 0.9179 0 19
1.6319 -2.0559 -0.8725 0.4651 0 19
1.9626 -2.2977 -1.0045 0.3261 0 14
3.1304 0.4068 -1.1289 0.3530 0 7
3.1145 0.5193 -1.1292 0.3529 0 7
3.0948 0.6313 -1.1295 0.3528 0 7
3.0712 0.7425 -1.1299 0.3526 0 7
3.0438 0.8528 -1.1304 0.3525 0 7
3.0126 0.9623 -1.1309 0.3523 0 7
2.9776 1.0706 -1.1315 0.3521 0 7
2.9389 1.1777 -1.1322 0.3519 0 7
2.8965 1.2836 -1.1330 0.3517 0 7
2.1831 1.0630 -0.8683 0.8447 47 10
2.0768 1.1054 -0.8413 0.4424 47 10
1.9080 1.1054 -0.7885 0.4720 47 10
1.7589 1.1054 -0.7429 0.5010 47 10
1.6259 1.1054 -0.7031 0.5294 47 10
1.5064 1.1054 -0.6682 0.5571 47 10
1.4327 1.1328 -0.6531 0.7867 47 10
1.4294 1.2163 -0.6712 0.7656 47 10
1.4258 1.3045 -0.6911 0.7435 47 10
2.2804 2.2424 -1.1437 0.3484 0 6
2.2009 2.3258 -1.1451 0.3480 0 6
2.1185 2.4066 -1.1465 0.3475 0 7
2.0332 2.4844 -1.1480 0.3471 0 7
1.9451 2.5594 -1.1496 0.3466 0 7
1.8543 2.6313 -1.1512 0.3461 0 7
1.7609 2.7002 -1.1528 0.3456 0 7
1.6650 2.7658 -1.1545 0.3451 0 7
1.5668 2.8281 -1.1562 0.3446 0 7
1.4662 2.8870 -1.1579 0.3441 0 7
1.3635 2.9424 -1.1597 0.3436 0 7
1.2587 2.9943 -1.1616 0.3430 0 7
1.1520 3.0425 -1.1634 0.3425 0 7
1.0435 3.0870 -1.1653 0.3419 0 7
0.9333 3.1277 -1.1672 0.3414 0 7
0.8215 3.1646 -1.1692 0.3408 0 7
0.7083 3.1975 -1.1712 0.3402 0 7
0.5939 3.2264 -1.1732 0.3396 0 7
0.4782 3.2512 -1.1752 0.3391 0 7
0.3615 3.2720 -1.1772 0.3385 0 7
0.2440 3.2886 -1.1793 0.3379 0 7
0.1257 3.3010 -1.1813 0.3373 0 7
0.0069 3.3092 -1.1834 0.3367 0 7
-0.1123 3.3131 -1.1855 0.3361 0 7
-0.2319 3.3128 -1.1876 0.3355 0 7
-0.3515 3.3081 -1.1897 0.3349 0 7
-0.4712 3.2991 -1.1917 0.3343 0 7
-0.5906 3.2857 -1.1938 0.3338 0 7
-0.7097 3.2680 -1.1959 0.3332 0 7
-0.8282 3.2460 -1.1980 0.3326 0 7
-0.9461 3.2196 -1.2000 0.3320 0 7
-1.0631 3.1889 -1.2021 0.3315 0 7
-1.1791 3.1539 -1.2041 0.3309 0 7
-1.2940 3.1146 -1.2061 0.3304 0 7
-1.4075 3.0711 -1.2081 0.3298 0 7
-1.5196 3.0233 -1.2100 0.3293 0 7
-1.6300 2.9714 -1.2120 0.3288 0 7
-1.7385 2.9154 -1.2139 0.3283 0 7
-1.8451 2.8553 -1.2157 0.3278 0 7
-1.9496 2.7913 -1.2176 0.3273 0 7
-0.9673 1.2839 -0.5749 0.6575 47 10
-0.9863 1.2155 -0.5598 0.6042 47 10
-1.0060 1.1525 -0.5471 0.6182 47 10
-1.0373 1.1054 -0.5421 0.6866 47 10
-1.1148 1.1054 -0.5614 0.6630 47 10
-1.1980 1.1054 -0.5829 0.6385 47 10
-1.2881 1.1054 -0.6070 0.6132 47 10
-1.3861 1.1054 -0.6340 0.5871 47 10
-1.4933 1.1054 -0.6644 0.5602 47 10
-1.6127 1.1063 -0.6994 0.7209 47 10
-2.9149 1.8489 -1.2344 0.3228 0 7
-2.9824 1.7445 -1.2356 0.3225 0 7
-3.0460 1.6376 -1.2367 0.3222 0 7
-3.1055 1.5282 -1.2377 0.3219 0 7
-3.1609 1.4166 -1.2387 0.3217 0 7
-3.2122 1.3029 -1.2396 0.3214 0 7
-3.2591 1.1872 -1.2404 0.3212 0 7
-3.3017 1.0698 -1.2412 0.3210 0 7
-3.3399 0.9509 -1.2418 0.3209 0 7
-3.3735 0.8305 -1.2424 0.3207 0 7
-3.4026 0.7089 -1.2429 0.3206 0 7
-3.4271 0.5862 -1.2433 0.3205 0 7
-3.4469 0.4626 -1.2437 0.3204 0 7
-3.4620 0.3384 -1.2440 0.3203 0 7
-3.4725 0.2136 -1.2441 0.3203 0 7
-3.4782 0.0886 -1.2442 0.3202 0 7
-3.4792 -0.0366 -1.2443 0.3202 0 7
-3.4754 -0.1618 -1.2442 0.3203 0 7
-3.4670 -0.2867 -1.2440 0.3203 0 7
-3.4537 -0.4112 -1.2438 0.3204 0 7
-3.4359 -0.5350 -1.2435 0.3204 0 7
-1.5029 -0.2898 -0.5473 0.4773 47 10
-1.3651 -0.3145 -0.5010 0.2114 47 10
-1.2946 -0.3478 -0.4794 0.1361 47 10
-1.2628 -0.3885 -0.4725 0.1381 47 10
-1.2321 -0.4281 -0.4664 0.4896 47 10
-1.2211 -0.4742 -0.4684 0.4875 47 10
-1.2089 -0.5202 -0.4706 0.4853 47 10
-3.1290 -1.4821 -1.2381 0.3218 0 7
-3.0712 -1.5925 -1.2371 0.3221 0 7
-3.0092 -1.7004 -1.2360 0.3224 0 7
-2.8382 -1.7414 -1.1908 0.5429 0 8
-2.6370 -1.7516 -1.1321 0.5711 0 8
-2.4607 -1.7653 -1.0830 0.6167 0 8
-2.3900 -1.8483 -1.0804 0.3237 0 8
-2.3193 -1.9309 -1.0792 0.3240 0 14
-2.2456 -2.0107 -1.0779 0.3244 0 14
-2.1691 -2.0876 -1.0766 0.3248 0 14
-2.0899 -2.1615 -1.0752 0.3253 0 14
-2.0081 -2.2323 -1.0738 0.3257 0 14
-1.9239 -2.3000 -1.0723 0.3261 0 14
-1.8373 -2.3644 -1.0708 0.3266 0 14
-1.7485 -2.4254 -1.0692 0.3271 0 14
-1.6576 -2.4831 -1.0677 0.3275 0 14
-1.2837 -2.0815 -0.8745 0.5532 0 19
-1.1706 -2.0604 -0.8474 0.9363 0 19
-1.1027 -2.1147 -0.8529 0.7286 0 19
-1.2763 -2.6784 -1.0610 0.3296 0 14
-1.1772 -2.7181 -1.0593 0.3301 0 14
-1.0768 -2.7542 -1.0575 0.3307 0 14
-0.9754 -2.7865 -1.0557 0.3312 0 14
-0.8730 -2.8150 -1.0540 0.3318 0 14
-0.7699 -2.8397 -1.0522 0.3324 0 14
-0.6661 -2.8606 -1.0503 0.3329 0 14
-0.5617 -2.8777 -1.0485 0.3335 0 14
-0.4570 -2.8910 -1.0467 0.3341 0 14
-0.3521 -2.9005 -1.0449 0.3347 0 14
-0.2471 -2.9062 -1.0430 0.3353 0 14
-0.1421 -2.9081 -1.0412 0.3359 0 14
-0.0373 -2.9062 -1.0394 0.3365 0 14
0.0672 -2.9006 -1.0375 0.3371 0 14
0.1234 -2.0843 -0.7467 0.8891 0 19
0.1960 -2.0546 -0.7381 0.8995 0 19
0.2738 -2.0767 -0.7491 0.8188 0 19
0.4792 -2.8411 -1.0304 0.3394 0 14
0.5801 -2.8172 -1.0286 0.3400 0 14
0.6799 -2.7898 -1.0269 0.3406 0 14
0.7786 -2.7589 -1.0251 0.3411 0 14
0.8759 -2.7246 -1.0234 0.3417 0 14
0.9718 -2.6869 -1.0218 0.3423 0 14
1.0661 -2.6459 -1.0201 0.3428 0 14
1.1587 -2.6017 -1.0185 0.3434 0 14
1.2496 -2.5544 -1.0169 0.3439 0 14
1.3387 -2.5039 -1.0154 0.3444 0 14
1.4258 -2.4504 -1.0138 0.3449 0 14
1.5108 -2.3941 -1.0123 0.3454 0 14
1.5353 -2.2493 -0.9739 0.1850 0 19
1.5372 -2.0866 -0.9268 0.8032 0 19
1.6313 -2.0552 -0.9383 0.4617 0 19
1.8285 -2.1408 -1.0068 0.3473 0 14
2.9303 0.3808 -1.1324 0.3739 0 7
2.9153 0.4861 -1.1326 0.3739 0 7
2.8968 0.5909 -1.1330 0.3738 0 7
2.8746 0.6949 -1.1333 0.3736 0 7
2.8489 0.7982 -1.1338 0.3735 0 7
2.8196 0.9006 -1.1343 0.3733 0 7
2.7868 1.0020 -1.1349 0.3731 0 7
2.7505 1.1022 -1.1355 0.3729 0 7
2.7107 1.2012 -1.1362 0.3727 0 7
2.1835 1.0631 -0.9307 0.8376 47 10
2.0768 1.1054 -0.9016 0.4387 47 10
1.9080 1.1054 -0.8450 0.4681 47 10
1.7589 1.1054 -0.7961 0.4969 47 10
1.6259 1.1054 -0.7534 0.5250 47 10
1.5064 1.1054 -0.7160 0.5524 47 10
1.4249 1.1266 -0.6961 0.7845 47 10
1.4214 1.2095 -0.7152 0.7635 47 10
1.4176 1.2970 -0.7363 0.7416 47 10
2.1328 2.0973 -1.1463 0.3694 0 7
2.0583 2.1751 -1.1476 0.3690 0 7
1.9810 2.2504 -1.1489 0.3686 0 6
1.9011 2.3231 -1.1503 0.3681 0 6
1.8186 2.3929 -1.1518 0.3676 0 7
1.7335 2.4600 -1.1533 0.3672 0 7
1.6461 2.5241 -1.1548 0.3667 0 7
1.5563 2.5852 -1.1564 0.3662 0 7
1.4643 2.6432 -1.1580 0.3657 0 7
1.3702 2.6980 -1.1596 0.3652 0 7
1.2741 2.7495 -1.1613 0.3646 0 7
1.1761 2.7977 -1.1630 0.3641 0 7
1.0762 2.8424 -1.1647 0.3636 0 7
0.9748 2.8837 -1.1665 0.3630 0 7
0.8717 2.9214 -1.1683 0.3624 0 7
0.7672 2.9555 -1.1701 0.3619 0 7
0.6615 2.9859 -1.1720 0.3613 0 7
0.5545 3.0125 -1.1738 0.3607 0 7
0.4465 3.0354 -1.1757 0.3602 0 7
0.3375 3.0544 -1.1776 0.3596 0 7
0.2278 3.0696 -1.1795 0.3590 0 7
0.1174 3.0808 -1.1815 0.3584 0 7
0.0065 3.0881 -1.1834 0.3578 0 7
-0.1048 3.0914 -1.1854 0.3572 0 7
-0.2163 3.0907 -1.1873 0.3566 0 7
-0.3279 3.0859 -1.1892 0.3561 0 7
-0.4395 3.0772 -1.1912 0.3555 0 7
-0.5508 3.0644 -1.1931 0.3549 0 7
-0.6618 3.0475 -1.1951 0.3543 0 7
-0.7722 3.0266 -1.1970 0.3538 0 7
-0.8820 3.0016 -1.1989 0.3532 0 7
-0.9910 2.9727 -1.2008 0.3526 0 7
-1.0991 2.9397 -1.2027 0.3521 0 7
-1.2060 2.9028 -1.2046 0.3515 0 7
-1.3116 2.8619 -1.2064 0.3510 0 7
-1.4159 2.8171 -1.2082 0.3505 0 7
-1.5186 2.7684 -1.2100 0.3500 0 7
-1.6196 2.7159 -1.2118 0.3494 0 7
-1.7187 2.6597 -1.2135 0.3489 0 7
-0.9330 1.3358 -0.6244 0.6433 47 10
-0.9475 1.2576 -0.6034 0.6656 47 10
-0.9607 1.1840 -0.5843 0.6874 47 10
-0.9741 1.1159 -0.5676 0.6332 47 10
-1.0373 1.1054 -0.5809 0.6809 47 10
-1.1147 1.1054 -0.6016 0.6575 47 10
-1.1980 1.1054 -0.6247 0.6332 47 10
-1.2881 1.1054 -0.6505 0.6081 47 10
-1.3860 1.1054 -0.6794 0.5822 47 10
-1.4933 1.1054 -0.7120 0.5556 47 10
-1.6204 1.1115 -0.7530 0.7116 47 10
-2.7123 1.7204 -1.2309 0.3440 0 7
-2.7749 1.6232 -1.2320 0.3437 0 7
-2.8339 1.5235 -1.2330 0.3434 0 7
-2.8891 1.4217 -1.2340 0.3432 0 7
-2.9405 1.3178 -1.2349 0.3429 0 7
-2.9881 1.2120 -1.2357 0.3427 0 7
-3.0316 1.1043 -1.2364 0.3425 0 7
-3.0711 0.9951 -1.2371 0.3423 0 7
-3.1064 0.8844 -1.2377 0.3421 0 7
-3.1376 0.7724 -1.2383 0.3420 0 7
-3.1646 0.6593 -1.2388 0.3418 0 7
-3.1873 0.5452 -1.2392 0.3417 0 7
-3.2056 0.4302 -1.2395 0.3416 0 7
-3.2197 0.3147 -1.2397 0.3416 0 7
-3.2294 0.1987 -1.2399 0.3415 0 7
-3.2347 0.0824 -1.2400 0.3415 0 7
-3.2356 -0.0341 -1.2400 0.3415 0 7
-3.2321 -0.1505 -1.2399 0.3415 0 7
-3.2242 -0.2666 -1.2398 0.3415 0 7
-3.2120 -0.3824 -1.2396 0.3416 0 7
-3.1954 -0.4976 -1.2393 0.3417 0 7
-1.5544 -0.2997 -0.6066 0.4576 47 10
-1.3651 -0.3145 -0.5368 0.2097 47 10
-1.1932 -0.3205 -0.4735 0.5126 47 10
-1.1847 -0.3644 -0.4750 0.5109 47 10
-1.1751 -0.4083 -0.4767 0.5091 47 10
-1.1644 -0.4521 -0.4787 0.5070 47 10
-1.1525 -0.4960 -0.4808 0.5048 47 10
-1.1395 -0.5397 -0.4832 0.5023 47 10
-2.8573 -1.4815 -1.2334 0.3433 0 7
-2.7998 -1.5821 -1.2324 0.3436 0 7
-2.7387 -1.6804 -1.2313 0.3439 0 7
-2.6169 -1.7382 -1.2039 0.5707 0 8
-2.4364 -1.7478 -1.1491 0.5979 0 8
-2.2710 -1.7563 -1.1002 0.6245 0 8
-2.1586 -1.7972 -1.0764 0.3453 0 8
-2.0903 -1.8716 -1.0752 0.3456 0 8
-2.0192 -1.9434 -1.0740 0.3460 0 14
-1.9457 -2.0123 -1.0727 0.3465 0 14
-1.8697 -2.0785 -1.0714 0.3469 0 14
-1.7914 -2.1417 -1.0700 0.3473 0 14
-1.7110 -2.2018 -1.0686 0.3478 0 14
-1.6284 -2.2589 -1.0671 0.3483 0 14
-1.5440 -2.3128 -1.0657 0.3487 0 14
-1.2841 -2.0821 -0.9374 0.5484 0 19
-1.1704 -2.0600 -0.9080 0.9287 0 19
-1.1021 -2.1136 -0.9135 0.7230 0 19
