ply
format ascii 1.0
element vertex 1595
property float32 x
property float32 y
property float32 z
property float32 I
end_header
-1.6515 8.3813 -1.2104 0.9661
-2.2721 8.3215 -1.2222 0.9658
-2.5832 8.2761 -1.2284 0.9656
-2.8923 8.2147 -1.2340 0.9654
-5.2786 7.2932 -1.2756 0.9643
-6.1286 4.8788 -1.2905 0.9687
-6.3162 4.6669 -1.2937 0.9687
-6.4958 4.4473 -1.2969 0.9686
-6.8293 3.9864 -1.3027 0.9685
-7.4993 2.7237 -1.3144 0.9682
-7.6959 2.1829 -1.3178 0.9681
-7.7779 1.9066 -1.3193 0.9681
-7.9085 1.3445 -1.3215 0.9680
-8.0328 0.1962 -1.3237 0.9680
-8.0349 -0.0930 -1.3237 0.9680
-7.9713 -0.9576 -1.3226 0.9680
-7.8714 -1.5265 -1.3209 0.9680
-7.5209 -1.7415 -1.2718 0.9692
-6.7811 -1.8297 -1.1571 0.9719
-6.6153 -2.3069 -1.1542 0.9720
-6.4125 -2.7682 -1.1506 0.9721
-3.9327 -2.2284 -0.7447 0.9818
-5.9030 -3.6314 -1.1417 0.9723
-5.6005 -4.0279 -1.1364 0.9724
-2.6617 -2.0636 -0.5548 0.9864
-5.0938 -4.5721 -1.1276 0.9726
-4.7246 -4.8985 -1.1212 0.9728
-4.4702 -6.2175 -1.2615 0.9694
-1.1056 -2.1270 -0.3949 0.9903
-3.2286 -6.7984 -1.2398 0.9700
-2.9710 -6.8852 -1.2354 0.9701
-2.7113 -6.9620 -1.2308 0.9702
-1.2458 -4.6201 -0.7883 0.9808
-0.8667 -7.2241 -1.1986 0.9709
-0.6039 -7.2228 -1.1940 0.9710
0.1262 -2.0803 -0.3433 0.9916
0.2775 -2.0811 -0.3459 0.9915
0.7333 -3.5350 -0.5947 0.9855
1.6800 -4.6235 -0.8104 0.9803
2.5919 -6.4049 -1.1383 0.9724
1.5034 -2.1951 -0.4383 0.9893
3.8380 -4.4789 -0.9717 0.9764
0.7245 -0.6333 -0.1585 0.9961
0.7637 -0.5762 -0.1576 0.9961
0.8035 -0.5199 -0.1577 0.9961
0.9257 -0.5085 -0.1740 0.9957
0.9640 -0.4426 -0.1747 0.9957
0.9780 -0.4070 -0.1745 0.9957
1.0921 -0.4091 -0.1921 0.9953
6.3610 -1.3850 -1.0725 0.9740
6.4024 -1.1545 -1.0717 0.9740
6.4363 -0.9228 -1.0711 0.9740
6.4626 -0.6903 -1.0707 0.9740
6.4923 -0.2235 -1.0702 0.9740
6.4917 0.2440 -1.0702 0.9740
6.4799 0.4776 -1.0704 0.9740
6.4606 0.7107 -1.0707 0.9740
6.4336 0.9431 -1.0712 0.9740
6.3570 1.4052 -1.0725 0.9740
6.3074 1.6344 -1.0734 0.9739
6.2503 1.8621 -1.0744 0.9739
6.1137 2.3119 -1.0768 0.9739
6.0343 2.5337 -1.0782 0.9738
5.9476 2.7531 -1.0797 0.9738
5.8535 2.9699 -1.0813 0.9737
5.7523 3.1838 -1.0831 0.9737
5.6438 3.3947 -1.0850 0.9737
5.5282 3.6023 -1.0870 0.9736
5.4056 3.8063 -1.0891 0.9736
5.2761 4.0067 -1.0914 0.9735
5.1397 4.2031 -1.0938 0.9734
4.5272 4.9450 -1.1045 0.9732
4.3580 5.1184 -1.1074 0.9731
4.1825 5.2864 -1.1105 0.9730
4.0009 5.4490 -1.1137 0.9730
3.8134 5.6059 -1.1169 0.9729
3.2167 6.0401 -1.1273 0.9726
3.0070 6.1719 -1.1310 0.9726
2.1190 6.6291 -1.1465 0.9722
1.8857 6.7249 -1.1506 0.9721
1.1625 6.9645 -1.1632 0.9718
0.9145 7.0279 -1.1675 0.9717
0.4097 7.1289 -1.1763 0.9715
0.1535 7.1661 -1.1808 0.9714
-0.6269 7.2233 -1.1944 0.9710
-1.1536 7.2146 -1.2036 0.9708
-1.6824 7.1675 -1.2129 0.9706
-1.9466 7.1293 -1.2175 0.9705
-2.2102 7.0813 -1.2221 0.9704
-2.4729 7.0234 -1.2267 0.9703
-2.9937 6.8780 -1.2357 0.9700
-3.2510 6.7904 -1.2402 0.9699
-3.5058 6.6929 -1.2447 0.9698
-3.7577 6.5856 -1.2491 0.9697
-4.2507 6.3416 -1.2577 0.9695
-4.4911 6.2052 -1.2619 0.9694
-4.7269 6.0592 -1.2660 0.9693
-5.4729 4.0438 -1.2790 0.9727
-5.9120 3.4509 -1.2867 0.9725
-6.2808 2.8076 -1.2931 0.9724
-6.3869 2.5835 -1.2950 0.9723
-6.5726 2.1227 -1.2982 0.9723
-6.7217 1.6477 -1.3008 0.9722
-6.7821 1.4059 -1.3019 0.9722
-6.8330 1.1617 -1.3028 0.9722
-6.8742 0.9155 -1.3035 0.9722
-6.9056 0.6678 -1.3040 0.9722
-6.9388 0.1695 -1.3046 0.9721
-6.9406 -0.0803 -1.3046 0.9721
-6.9324 -0.3300 -1.3045 0.9721
-6.8488 -1.0741 -1.3030 0.9722
-6.8014 -1.3190 -1.3022 0.9722
-6.7444 -1.5617 -1.3012 0.9722
-6.4524 -1.7410 -1.2562 0.9732
-5.7195 -1.9945 -1.1385 0.9756
-5.5464 -2.3943 -1.1355 0.9757
-5.4485 -2.5885 -1.1338 0.9757
-4.8521 -3.4897 -1.1234 0.9760
-2.6633 -2.0648 -0.6334 0.9864
-4.4178 -3.9653 -1.1158 0.9761
-2.0929 -2.1699 -0.5667 0.9878
-3.4108 -4.7440 -1.0982 0.9765
-3.2285 -4.8496 -1.0950 0.9766
-1.1690 -2.0639 -0.4458 0.9904
-2.3647 -6.0719 -1.2248 0.9738
-2.1377 -6.1331 -1.2208 0.9739
-0.7584 -6.3216 -1.1967 0.9744
-0.2998 -6.3172 -1.1887 0.9746
-0.0720 -6.3028 -1.1848 0.9747
0.1150 -4.6803 -0.8800 0.9811
0.1262 -2.0806 -0.3918 0.9916
0.1987 -2.0510 -0.3873 0.9916
0.2775 -2.0808 -0.3946 0.9915
1.0401 -6.1120 -1.1653 0.9751
0.7334 -3.5353 -0.6786 0.9854
1.4676 -5.9829 -1.1579 0.9752
1.4715 -5.1847 -1.0130 0.9783
1.5182 -4.6983 -0.9281 0.9801
2.0032 -4.9501 -1.0037 0.9785
2.1736 -4.8604 -1.0008 0.9786
2.8165 -4.4478 -0.9895 0.9788
1.6430 -2.0632 -0.4957 0.9893
3.3909 -3.9571 -0.9795 0.9790
0.7460 -0.6061 -0.1807 0.9961
0.7655 -0.5775 -0.1802 0.9961
0.7851 -0.5491 -0.1801 0.9961
0.8275 -0.4942 -0.1812 0.9961
0.8573 -0.4710 -0.1838 0.9960
0.8879 -0.4470 -0.1869 0.9960
0.9197 -0.4222 -0.1902 0.9959
4.7610 -1.7832 -0.9556 0.9795
5.2217 -1.7442 -1.0348 0.9778
5.5460 -1.6332 -1.0867 0.9767
5.5966 -1.4314 -1.0858 0.9768
5.6405 -1.2282 -1.0850 0.9768
5.7583 -0.1983 -1.0830 0.9768
5.7615 0.0091 -1.0829 0.9768
5.7577 0.2164 -1.0830 0.9768
5.7298 0.6303 -1.0835 0.9768
5.7057 0.8364 -1.0839 0.9768
5.5925 1.4491 -1.0859 0.9768
5.5412 1.6508 -1.0868 0.9767
5.4833 1.8509 -1.0878 0.9767
5.4188 2.0491 -1.0889 0.9767
5.3476 2.2454 -1.0902 0.9767
5.2699 2.4394 -1.0915 0.9766
4.9979 3.0062 -1.0963 0.9765
1.9070 1.3428 -0.4384 0.9906
4.5473 3.7187 -1.1041 0.9764
4.2857 4.0528 -1.1087 0.9763
4.0009 4.3701 -1.1137 0.9762
3.6939 4.6689 -1.1190 0.9761
3.1939 5.0791 -1.1277 0.9759
2.8359 5.3251 -1.1340 0.9757
1.8644 5.8326 -1.1510 0.9754
1.2365 6.0567 -1.1619 0.9752
1.0211 6.1170 -1.1657 0.9751
0.5822 6.2152 -1.1733 0.9749
-0.0919 6.3044 -1.1851 0.9747
-0.3198 6.3181 -1.1891 0.9746
-0.7786 6.3210 -1.1971 0.9744
-1.0090 6.3100 -1.2011 0.9743
-1.2396 6.2906 -1.2051 0.9742
-1.7001 6.2264 -1.2132 0.9741
-2.1577 6.1281 -1.2212 0.9739
-2.3845 6.0661 -1.2251 0.9738
-2.6096 5.9955 -1.2290 0.9737
-2.8326 5.9164 -1.2329 0.9737
-3.0532 5.8288 -1.2368 0.9736
-3.2710 5.7327 -1.2406 0.9735
-3.4857 5.6282 -1.2443 0.9734
-3.6969 5.5154 -1.2480 0.9733
-4.1075 5.2653 -1.2552 0.9732
-4.6829 3.7279 -1.2652 0.9758
-4.8234 3.5639 -1.2677 0.9758
-4.9577 3.3943 -1.2700 0.9757
-5.0855 3.2193 -1.2723 0.9757
-5.3211 2.8543 -1.2764 0.9756
-5.4283 2.6649 -1.2782 0.9756
-5.5282 2.4712 -1.2800 0.9755
-5.7054 2.0722 -1.2831 0.9755
-5.9121 1.4492 -1.2867 0.9754
-6.0089 1.0216 -1.2884 0.9754
-6.1009 0.1490 -1.2900 0.9754
-6.1024 -0.0706 -1.2900 0.9754
-6.0796 -0.5092 -1.2896 0.9754
-6.0554 -0.7275 -1.2892 0.9754
-5.9814 -1.1600 -1.2879 0.9754
-4.9603 -1.9326 -1.1253 0.9785
-3.9279 -2.2256 -0.9543 0.9817
-4.5020 -2.7695 -1.1173 0.9786
-4.2759 -3.0753 -1.1133 0.9787
-2.6648 -2.0660 -0.7127 0.9863
-3.8963 -3.4972 -1.1067 0.9788
-3.7598 -3.6274 -1.1043 0.9789
-3.6187 -3.7519 -1.1019 0.9789
-3.3239 -3.9838 -1.0967 0.9790
-3.1706 -4.0908 -1.0940 0.9791
-2.8536 -4.2865 -1.0885 0.9792
-1.2767 -2.0761 -0.5152 0.9901
-1.1688 -2.0636 -0.5013 0.9904
-1.1045 -2.1249 -0.5062 0.9903
-1.8383 -4.7203 -1.0708 0.9795
-1.6625 -4.7697 -1.0677 0.9796
-1.4854 -4.8125 -1.0646 0.9796
-1.2463 -4.6219 -1.0119 0.9806
-1.0828 -4.6792 -1.0152 0.9806
-0.2338 -4.9276 -1.0428 0.9800
0.1151 -4.6846 -0.9905 0.9810
0.1262 -2.0810 -0.4407 0.9915
0.1987 -2.0514 -0.4356 0.9916
0.2774 -2.0804 -0.4436 0.9915
0.7335 -3.5356 -0.7633 0.9853
0.5337 -2.1755 -0.4735 0.9909
1.3121 -4.6229 -1.0158 0.9805
1.7879 -4.4182 -1.0075 0.9807
1.9406 -4.3395 -1.0048 0.9808
1.0587 -2.1557 -0.5077 0.9902
2.2362 -4.1671 -0.9997 0.9809
2.5177 -3.9759 -0.9947 0.9809
1.5090 -2.2033 -0.5645 0.9891
1.5395 -2.0829 -0.5475 0.9895
1.6424 -2.0625 -0.5573 0.9893
3.0343 -3.5411 -0.9857 0.9811
3.2676 -3.2999 -0.9817 0.9812
0.7279 -0.6362 -0.2043 0.9961
0.7472 -0.6071 -0.2035 0.9961
0.7664 -0.5782 -0.2029 0.9961
0.7856 -0.5495 -0.2027 0.9961
0.8277 -0.4943 -0.2038 0.9961
4.0161 -2.2063 -0.9686 0.9814
4.0876 -2.0577 -0.9673 0.9815
4.1710 -1.9147 -0.9701 0.9814
4.6540 -1.7431 -1.0505 0.9799
4.9767 -1.4655 -1.0966 0.9790
5.0623 -1.1023 -1.0951 0.9790
5.0959 -0.9189 -1.0945 0.9791
5.1234 -0.7346 -1.0941 0.9791
5.1448 -0.5495 -1.0937 0.9791
5.1690 -0.1780 -1.0933 0.9791
5.1718 0.0082 -1.0932 0.9791
5.1589 0.3802 -1.0934 0.9791
5.0932 0.9350 -1.0946 0.9791
4.9723 1.4813 -1.0967 0.9790
4.9199 1.6607 -1.0976 0.9790
1.6780 1.1815 -0.4338 0.9916
1.6540 1.2561 -0.4390 0.9915
1.6290 1.3322 -0.4448 0.9914
3.8377 3.6292 -1.1165 0.9786
3.7119 3.7724 -1.1187 0.9786
3.5811 3.9115 -1.1210 0.9786
3.4452 4.0464 -1.1234 0.9785
3.1592 4.3027 -1.1283 0.9784
2.8550 4.5401 -1.1337 0.9783
2.3667 4.8576 -1.1422 0.9782
2.1960 4.9525 -1.1452 0.9781
2.0217 5.0417 -1.1482 0.9780
1.4787 5.2734 -1.1577 0.9779
1.2916 5.3382 -1.1609 0.9778
0.9095 5.4484 -1.1676 0.9777
0.5182 5.5319 -1.1744 0.9775
0.3197 5.5633 -1.1779 0.9775
0.1197 5.5877 -1.1814 0.9774
-0.0817 5.6051 -1.1849 0.9773
-0.2842 5.6152 -1.1885 0.9773
-1.1000 5.5824 -1.2027 0.9770
-1.7103 5.4794 -1.2133 0.9768
-2.1121 5.3731 -1.2204 0.9767
-2.3106 5.3086 -1.2238 0.9766
-2.5072 5.2367 -1.2273 0.9765
-2.7015 5.1573 -1.2306 0.9765
-2.8932 5.0705 -1.2340 0.9764
-3.6281 4.6507 -1.2468 0.9762
-3.8024 4.5282 -1.2499 0.9761
-4.4264 3.0305 -1.2608 0.9782
-4.6470 2.7125 -1.2646 0.9781
-4.7483 2.5471 -1.2664 0.9781
-4.9316 2.2045 -1.2696 0.9780
-5.0134 2.0279 -1.2710 0.9780
-5.0884 1.8481 -1.2723 0.9780
-5.1564 1.6653 -1.2735 0.9780
-5.2711 1.2921 -1.2755 0.9779
-5.3175 1.1023 -1.2763 0.9779
-5.3883 0.7176 -1.2775 0.9779
-5.4124 0.5234 -1.2780 0.9779
-5.4379 0.1328 -1.2784 0.9779
-5.4393 -0.0630 -1.2784 0.9779
-5.4330 -0.2586 -1.2783 0.9779
-5.3977 -0.6485 -1.2777 0.9779
-5.3323 -1.0341 -1.2766 0.9779
-5.2885 -1.2246 -1.2758 0.9779
-5.1789 -1.5994 -1.2739 0.9780
-4.3545 -1.8798 -1.1147 0.9807
-4.2790 -2.0329 -1.1134 0.9807
-4.0185 -2.4721 -1.1088 0.9808
-3.9209 -2.6111 -1.1071 0.9808
-3.8182 -2.7460 -1.1053 0.9809
-2.5196 -2.1028 -0.7713 0.9866
-3.4814 -3.1248 -1.0995 0.9810
-3.3602 -3.2419 -1.0973 0.9810
-3.2349 -3.3540 -1.0952 0.9810
-3.1057 -3.4611 -1.0929 0.9811
-2.9728 -3.5630 -1.0906 0.9811
-2.6968 -3.7510 -1.0858 0.9812
-2.5542 -3.8368 -1.0833 0.9812
-1.2770 -2.0766 -0.5730 0.9900
-1.1687 -2.0633 -0.5573 0.9903
-1.1040 -2.1239 -0.5626 0.9902
-1.9583 -4.1236 -1.0729 0.9814
-0.6803 -2.2040 -0.5421 0.9906
-1.1733 -4.3513 -1.0592 0.9817
-1.0133 -4.3791 -1.0564 0.9817
-0.8528 -4.4010 -1.0536 0.9817
-0.6920 -4.4171 -1.0508 0.9818
-0.5312 -4.4272 -1.0480 0.9818
-0.2102 -4.4302 -1.0424 0.9819
0.1084 -4.4102 -1.0368 0.9820
0.1262 -2.0813 -0.4901 0.9915
0.2774 -2.0800 -0.4932 0.9914
0.7323 -4.3033 -1.0259 0.9822
1.0346 -4.2177 -1.0206 0.9823
1.1827 -4.1671 -1.0180 0.9824
1.6129 -3.9858 -1.0105 0.9825
1.7511 -3.9158 -1.0081 0.9825
1.8865 -3.8412 -1.0058 0.9826
2.2741 -3.5912 -0.9990 0.9827
1.6419 -2.0619 -0.6195 0.9892
2.8512 -3.0946 -0.9889 0.9829
3.2431 -2.6351 -0.9821 0.9830
3.4926 -2.2602 -0.9777 0.9831
3.6368 -1.9979 -0.9752 0.9831
4.1855 -1.7419 -1.0655 0.9815
4.4091 -1.6514 -1.1065 0.9808
1.7271 -0.5086 -0.4231 0.9926
1.7440 -0.3797 -0.4195 0.9927
1.7505 -0.3156 -0.4180 0.9927
4.6849 -0.1613 -1.1017 0.9809
4.6875 0.0074 -1.1017 0.9809
4.5845 1.0134 -1.1035 0.9809
4.5054 1.3422 -1.1049 0.9809
4.4042 1.6655 -1.1066 0.9808
2.0900 1.0604 -0.5508 0.9904
1.6964 1.1054 -0.4759 0.9917
1.5927 1.2095 -0.4700 0.9918
3.5812 3.1504 -1.1210 0.9806
3.3570 3.4117 -1.1249 0.9805
3.1146 3.6580 -1.1291 0.9805
1.9816 4.4689 -1.1489 0.9801
1.8238 4.5481 -1.1517 0.9801
1.6630 4.6221 -1.1545 0.9800
1.4993 4.6905 -1.1573 0.9800
1.3329 4.7533 -1.1602 0.9799
1.1639 4.8104 -1.1632 0.9799
0.8191 4.9069 -1.1692 0.9798
0.6436 4.9462 -1.1723 0.9797
-0.0735 5.0406 -1.1848 0.9795
-0.4382 5.0492 -1.1911 0.9794
-1.1706 4.9871 -1.2039 0.9792
-1.5343 4.9157 -1.2103 0.9791
-2.0711 4.7583 -1.2196 0.9789
-2.2466 4.6924 -1.2227 0.9788
-2.4200 4.6199 -1.2257 0.9788
-3.7753 3.0054 -1.2494 0.9803
-4.1917 2.4467 -1.2567 0.9801
-4.2824 2.2972 -1.2582 0.9801
-4.3674 2.1441 -1.2597 0.9801
-4.4466 1.9877 -1.2611 0.9801
-4.5199 1.8283 -1.2624 0.9801
-4.8271 0.8207 -1.2678 0.9800
-4.8554 0.6467 -1.2682 0.9800
-4.8770 0.4717 -1.2686 0.9800
-4.9010 -0.0567 -1.2690 0.9800
-4.8830 -0.4090 -1.2687 0.9800
-4.8639 -0.5843 -1.2684 0.9800
-4.7661 -1.1036 -1.2667 0.9800
-4.6681 -1.4416 -1.2650 0.9800
-4.6094 -1.6074 -1.2640 0.9800
-3.8585 -1.8331 -1.1060 0.9825
-3.7078 -2.1009 -1.1034 0.9825
-2.9217 -3.0293 -1.0897 0.9828
-2.6860 -3.2194 -1.0856 0.9828
-2.5634 -3.3074 -1.0834 0.9829
-2.3094 -3.4690 -1.0790 0.9829
-1.1034 -2.1228 -0.6194 0.9902
-1.4923 -3.8319 -1.0647 0.9832
-1.2072 -3.9110 -1.0598 0.9832
-1.0631 -3.9425 -1.0572 0.9833
-0.7731 -3.9896 -1.0522 0.9833
-0.6275 -4.0051 -1.0496 0.9834
-0.4818 -4.0154 -1.0471 0.9834
-0.1908 -4.0200 -1.0420 0.9835
0.0984 -4.0038 -1.0370 0.9836
0.1262 -2.0817 -0.5400 0.9914
0.7336 -3.5363 -0.9351 0.9852
1.0755 -3.7895 -1.0199 0.9839
1.2084 -3.7398 -1.0176 0.9839
1.8383 -3.4257 -1.0066 0.9841
1.9564 -3.3504 -1.0045 0.9841
2.0715 -3.2713 -1.0025 0.9841
1.5400 -2.0836 -0.6708 0.9894
2.5006 -2.9182 -0.9950 0.9842
2.6949 -2.7215 -0.9917 0.9843
2.7866 -2.6185 -0.9901 0.9843
2.8745 -2.5127 -0.9885 0.9843
3.1876 -2.0627 -0.9831 0.9844
3.2558 -1.9443 -0.9819 0.9845
3.3199 -1.8238 -0.9807 0.9845
3.4851 -1.7544 -1.0102 0.9840
4.0263 -1.5081 -1.1132 0.9824
1.6292 -0.5442 -0.4447 0.9929
1.6388 -0.4826 -0.4423 0.9930
1.6555 -0.3605 -0.4387 0.9930
1.7443 -0.3145 -0.4589 0.9927
2.0850 -0.2989 -0.5454 0.9913
4.2595 -0.4550 -1.1091 0.9825
4.2723 -0.3013 -1.1089 0.9825
4.2799 -0.1474 -1.1088 0.9825
4.2794 0.1609 -1.1088 0.9825
4.2714 0.3148 -1.1089 0.9825
4.2582 0.4684 -1.1092 0.9825
4.2162 0.7740 -1.1099 0.9824
4.1537 1.0763 -1.1110 0.9824
4.1148 1.2259 -1.1117 0.9824
3.9679 1.6660 -1.1142 0.9824
3.9089 1.8094 -1.1153 0.9824
2.1333 1.0823 -0.6194 0.9902
1.8378 1.1054 -0.5553 0.9912
1.5317 1.2526 -0.5123 0.9919
3.1660 2.9940 -1.1282 0.9822
3.0612 3.1110 -1.1301 0.9821
2.9522 3.2246 -1.1320 0.9821
2.8392 3.3346 -1.1339 0.9821
2.6015 3.5431 -1.1381 0.9820
2.4770 3.6413 -1.1403 0.9820
2.2174 3.8252 -1.1448 0.9819
2.0826 3.9105 -1.1471 0.9819
1.8036 4.0674 -1.1520 0.9818
1.3637 4.2663 -1.1597 0.9817
1.2121 4.3225 -1.1623 0.9816
0.4237 4.5226 -1.1761 0.9814
0.2613 4.5458 -1.1789 0.9814
0.0977 4.5633 -1.1818 0.9813
-0.0667 4.5749 -1.1847 0.9813
-0.2319 4.5807 -1.1875 0.9812
-0.3975 4.5805 -1.1904 0.9812
-0.7295 4.5621 -1.1962 0.9811
-0.8954 4.5439 -1.1991 0.9810
-1.0609 4.5196 -1.2020 0.9810
-1.2258 4.4892 -1.2049 0.9810
-1.3898 4.4528 -1.2078 0.9809
-1.5528 4.4102 -1.2106 0.9809
-1.7145 4.3616 -1.2134 0.9808
-1.8747 4.3070 -1.2162 0.9808
-2.4953 4.0290 -1.2270 0.9806
-2.7903 3.8552 -1.2322 0.9805
-3.0726 3.6591 -1.2371 0.9805
-1.4799 1.0935 -0.5209 0.9924
-3.7265 2.3590 -1.2485 0.9818
-3.9726 1.9503 -1.2528 0.9818
-4.1105 1.6627 -1.2552 0.9817
-4.2262 1.3649 -1.2573 0.9817
-4.3190 1.0587 -1.2589 0.9817
-4.3566 0.9031 -1.2595 0.9817
-4.3882 0.7460 -1.2601 0.9817
-4.4332 0.4287 -1.2609 0.9817
-4.4466 0.2690 -1.2611 0.9817
-4.4387 -0.3718 -1.2610 0.9817
-4.3980 -0.6897 -1.2603 0.9817
-4.3331 -1.0034 -1.2591 0.9817
-4.2445 -1.3108 -1.2576 0.9817
-4.1915 -1.4617 -1.2567 0.9817
-4.0216 -1.7361 -1.2400 0.9820
-3.2983 -2.0290 -1.0963 0.9840
-2.5175 -2.1011 -0.9283 0.9865
-2.8618 -2.5687 -1.0886 0.9841
-2.7631 -2.6658 -1.0869 0.9842
-2.6610 -2.7590 -1.0851 0.9842
-2.5557 -2.8481 -1.0833 0.9842
-2.4472 -2.9331 -1.0814 0.9842
-2.3359 -3.0139 -1.0795 0.9843
-2.1052 -3.1622 -1.0754 0.9843
-1.2777 -2.0777 -0.6905 0.9899
-1.1029 -2.1217 -0.6769 0.9901
-1.6167 -3.4044 -1.0669 0.9845
-1.4901 -3.4532 -1.0647 0.9845
-1.3620 -3.4972 -1.0625 0.9845
-0.9708 -3.6004 -1.0556 0.9846
-0.8388 -3.6250 -1.0533 0.9847
-0.7063 -3.6448 -1.0510 0.9847
-0.5734 -3.6598 -1.0487 0.9847
-0.3073 -3.6752 -1.0441 0.9848
0.0900 -3.6624 -1.0371 0.9849
0.1988 -2.0524 -0.5837 0.9915
0.2773 -2.0792 -0.5938 0.9913
0.7337 -3.5366 -1.0225 0.9851
0.8614 -3.5119 -1.0237 0.9851
0.9852 -3.4712 -1.0215 0.9851
1.3452 -3.3243 -1.0152 0.9852
1.4611 -3.2672 -1.0132 0.9852
1.5746 -3.2062 -1.0112 0.9853
1.6858 -3.1414 -1.0093 0.9853
1.7943 -3.0729 -1.0074 0.9853
1.5177 -2.2161 -0.7604 0.9889
1.5403 -2.0839 -0.7336 0.9893
2.2953 -2.6786 -0.9986 0.9854
2.6399 -2.3076 -0.9926 0.9855
2.7916 -2.1061 -0.9900 0.9856
2.8620 -2.0018 -0.9887 0.9856
2.9288 -1.8953 -0.9876 0.9856
2.9917 -1.7866 -0.9865 0.9856
3.4542 -1.7388 -1.0948 0.9841
3.6518 -1.5198 -1.1198 0.9837
3.7013 -1.3863 -1.1189 0.9837
1.5974 -0.4085 -0.4668 0.9932
2.1294 -0.3053 -0.6090 0.9911
3.9168 -0.4184 -1.1151 0.9838
3.9286 -0.2771 -1.1149 0.9838
3.9356 -0.1355 -1.1148 0.9838
3.9378 0.0062 -1.1148 0.9838
3.9352 0.1479 -1.1148 0.9838
3.9155 0.4307 -1.1151 0.9838
3.8985 0.5715 -1.1154 0.9838
3.8502 0.8511 -1.1163 0.9837
3.8190 0.9896 -1.1168 0.9837
3.6472 1.5314 -1.1198 0.9837
3.5928 1.6631 -1.1208 0.9837
2.1579 1.0948 -0.6850 0.9900
1.5698 1.1054 -0.5435 0.9921
1.5058 1.1435 -0.5353 0.9922
1.4890 1.3099 -0.5614 0.9918
2.9072 2.7493 -1.1327 0.9835
2.4983 3.1578 -1.1399 0.9834
2.3871 3.2511 -1.1418 0.9834
2.2725 3.3408 -1.1438 0.9833
2.1547 3.4266 -1.1459 0.9833
2.0338 3.5083 -1.1480 0.9833
1.9098 3.5860 -1.1502 0.9833
1.6533 3.7285 -1.1546 0.9832
1.2494 3.9087 -1.1617 0.9831
0.5352 4.1129 -1.1742 0.9829
0.3877 4.1386 -1.1767 0.9829
0.2390 4.1590 -1.1793 0.9828
-0.2120 4.1883 -1.1872 0.9827
-0.3634 4.1873 -1.1898 0.9827
-0.5150 4.1807 -1.1925 0.9826
-0.8180 4.1512 -1.1978 0.9826
-0.9690 4.1281 -1.2004 0.9825
-1.1194 4.0995 -1.2030 0.9825
-1.2689 4.0654 -1.2056 0.9825
-1.4174 4.0257 -1.2082 0.9824
-1.7105 3.9299 -1.2134 0.9823
-1.8547 3.8738 -1.2159 0.9823
-1.9970 3.8124 -1.2184 0.9823
-2.2750 3.6734 -1.2232 0.9822
-2.4104 3.5961 -1.2256 0.9822
-2.5431 3.5137 -1.2279 0.9821
-2.6728 3.4262 -1.2301 0.9821
-1.5385 1.1368 -0.5884 0.9920
-3.3309 2.2805 -1.2416 0.9832
-3.4149 2.1617 -1.2431 0.9832
-3.4944 2.0397 -1.2445 0.9832
-3.5692 1.9146 -1.2458 0.9832
-3.6394 1.7867 -1.2470 0.9832
-3.7047 1.6561 -1.2482 0.9832
-3.9155 1.1106 -1.2518 0.9831
-3.9894 0.8270 -1.2531 0.9831
-4.0182 0.6831 -1.2536 0.9831
-4.0414 0.5383 -1.2540 0.9831
-4.0592 0.3926 -1.2543 0.9831
-4.0714 0.2463 -1.2546 0.9831
-4.0790 -0.0472 -1.2547 0.9831
-4.0642 -0.3404 -1.2544 0.9831
-4.0484 -0.4864 -1.2542 0.9831
-4.0271 -0.6315 -1.2538 0.9831
-4.0003 -0.7758 -1.2533 0.9831
-3.9680 -0.9188 -1.2528 0.9831
-3.9303 -1.0605 -1.2521 0.9831
-3.8872 -1.2005 -1.2513 0.9831
-3.8389 -1.3387 -1.2505 0.9831
-3.7854 -1.4749 -1.2496 0.9831
-3.7268 -1.6088 -1.2485 0.9832
-3.6505 -1.7343 -1.2431 0.9832
-3.3612 -1.7478 -1.1653 0.9843
-3.1077 -1.7609 -1.0986 0.9852
-2.9501 -1.9646 -1.0902 0.9853
-2.8740 -2.0670 -1.0889 0.9853
-2.6711 -2.0709 -1.0396 0.9860
-2.6239 -2.3552 -1.0845 0.9854
-2.4405 -2.5304 -1.0813 0.9854
-2.3442 -2.6125 -1.0796 0.9854
-2.2451 -2.6908 -1.0779 0.9854
-2.1432 -2.7653 -1.0761 0.9855
-2.0389 -2.8358 -1.0743 0.9855
-1.9321 -2.9023 -1.0724 0.9855
-1.1681 -2.0623 -0.7290 0.9901
-1.3687 -3.1720 -1.0626 0.9856
-1.2513 -3.2130 -1.0605 0.9857
-1.0129 -3.2817 -1.0564 0.9857
-0.8924 -3.3094 -1.0543 0.9858
-0.7712 -3.3327 -1.0522 0.9858
-0.4050 -3.3758 -1.0458 0.9859
-0.0386 -3.3790 -1.0394 0.9860
0.0829 -3.3713 -1.0372 0.9860
0.1263 -2.0824 -0.6417 0.9913
0.5612 -3.2977 -1.0289 0.9861
1.2404 -3.0651 -1.0170 0.9863
1.3474 -3.0130 -1.0152 0.9863
1.4523 -2.9572 -1.0133 0.9863
1.5551 -2.8979 -1.0115 0.9863
1.6555 -2.8351 -1.0098 0.9864
1.7535 -2.7690 -1.0081 0.9864
1.5405 -2.0843 -0.7972 0.9892
2.1191 -2.4730 -1.0017 0.9865
2.2035 -2.3916 -1.0002 0.9865
2.2849 -2.3075 -0.9988 0.9865
2.3632 -2.2207 -0.9974 0.9865
2.5103 -2.0397 -0.9949 0.9866
2.5790 -1.9457 -0.9937 0.9866
2.6443 -1.8495 -0.9925 0.9866
2.7211 -1.7609 -0.9969 0.9865
2.9286 -1.7490 -1.0492 0.9858
3.3254 -1.5266 -1.1254 0.9848
3.4215 -1.2815 -1.1238 0.9848
1.5616 -0.3400 -0.4916 0.9933
1.7443 -0.3145 -0.5451 0.9926
3.6411 0.0057 -1.1199 0.9849
3.6387 0.1368 -1.1200 0.9849
3.6205 0.3983 -1.1203 0.9849
3.6047 0.5284 -1.1206 0.9849
3.5845 0.6580 -1.1209 0.9849
3.5598 0.7869 -1.1214 0.9849
3.5308 0.9149 -1.1219 0.9849
3.4597 1.1678 -1.1231 0.9848
3.3713 1.4156 -1.1246 0.9848
2.1825 1.1073 -0.7527 0.9898
1.9971 1.1054 -0.7021 0.9905
1.6964 1.1054 -0.6228 0.9916
1.4820 1.1254 -0.5724 0.9922
1.4735 1.2050 -0.5855 0.9921
1.4643 1.2881 -0.5998 0.9919
2.6850 2.5391 -1.1366 0.9847
2.4059 2.8257 -1.1415 0.9846
2.3062 2.9149 -1.1432 0.9846
2.2033 3.0007 -1.1450 0.9845
2.0972 3.0831 -1.1469 0.9845
1.8763 3.2368 -1.1507 0.9845
1.7617 3.3079 -1.1527 0.9844
1.4025 3.4975 -1.1590 0.9844
1.1516 3.6029 -1.1634 0.9843
1.0232 3.6490 -1.1656 0.9843
0.8929 3.6906 -1.1679 0.9842
0.7610 3.7277 -1.1702 0.9842
0.4929 3.7879 -1.1749 0.9841
0.3570 3.8108 -1.1773 0.9841
-0.0561 3.8506 -1.1845 0.9840
-0.1951 3.8539 -1.1869 0.9840
-0.4737 3.8456 -1.1918 0.9839
-0.6130 3.8339 -1.1942 0.9839
-0.7521 3.8171 -1.1966 0.9839
-1.0289 3.7682 -1.2015 0.9838
-1.1662 3.7362 -1.2038 0.9838
-1.3024 3.6991 -1.2062 0.9837
-1.4375 3.6570 -1.2086 0.9837
-1.5712 3.6098 -1.2109 0.9837
-1.8337 3.5007 -1.2155 0.9836
-1.9621 3.4387 -1.2177 0.9836
-2.3337 3.2243 -1.2242 0.9835
-1.0648 1.2680 -0.5093 0.9931
-1.3886 1.1054 -0.5900 0.9925
-1.5805 1.0821 -0.6367 0.9920
-3.1480 1.9928 -1.2384 0.9844
-3.2210 1.8801 -1.2397 0.9844
-3.2897 1.7647 -1.2409 0.9844
-3.4695 1.4034 -1.2441 0.9843
-3.6075 1.0233 -1.2465 0.9843
-3.6752 0.7619 -1.2476 0.9843
-3.7230 0.4959 -1.2485 0.9843
-3.7505 0.2269 -1.2490 0.9843
-3.7565 0.0918 -1.2491 0.9843
-3.7532 -0.1787 -1.2490 0.9843
-3.7439 -0.3136 -1.2488 0.9843
-3.7294 -0.4480 -1.2486 0.9843
-3.7099 -0.5818 -1.2483 0.9843
-1.4658 -0.3955 -0.5047 0.9936
-1.4800 -0.5161 -0.5210 0.9934
-3.4881 -1.3591 -1.2444 0.9843
-3.4344 -1.4826 -1.2434 0.9844
-3.3760 -1.6039 -1.2424 0.9844
-2.8540 -1.7557 -1.1138 0.9860
-2.7197 -1.8112 -1.0862 0.9863
-2.5764 -1.9975 -1.0837 0.9864
-2.4998 -2.0863 -1.0823 0.9864
-2.1628 -2.4103 -1.0764 0.9864
-1.3714 -2.8877 -1.0626 0.9866
-1.0465 -3.0026 -1.0570 0.9867
-0.9361 -3.0327 -1.0550 0.9867
-0.6004 -3.0987 -1.0492 0.9868
-0.4876 -3.1124 -1.0472 0.9868
-0.3746 -3.1221 -1.0452 0.9868
-0.1485 -3.1291 -1.0413 0.9869
0.1989 -2.0531 -0.6856 0.9913
0.2772 -2.0785 -0.6970 0.9912
0.5196 -3.0536 -1.0296 0.9870
0.7352 -2.9973 -1.0259 0.9871
0.8411 -2.9636 -1.0240 0.9871
0.9455 -2.9262 -1.0222 0.9871
1.0484 -2.8852 -1.0204 0.9871
1.2489 -2.7927 -1.0169 0.9872
1.3463 -2.7413 -1.0152 0.9872
1.4417 -2.6867 -1.0135 0.9872
1.5350 -2.6288 -1.0119 0.9873
1.6261 -2.5678 -1.0103 0.9873
1.5238 -2.2250 -0.8964 0.9887
1.6397 -2.0592 -0.8750 0.9890
2.0446 -2.2191 -1.0030 0.9874
2.2632 -1.9783 -0.9992 0.9874
2.3302 -1.8933 -0.9980 0.9874
2.3941 -1.8062 -0.9969 0.9874
2.6984 -1.7462 -1.0684 0.9865
2.9053 -1.7350 -1.1248 0.9858
3.0377 -1.5292 -1.1305 0.9858
3.1351 -1.3047 -1.1288 0.9858
3.1779 -1.1903 -1.1280 0.9858
1.5233 -0.3317 -0.5182 0.9935
1.7443 -0.3145 -0.5892 0.9926
2.1748 -0.3118 -0.7303 0.9908
3.3646 -0.3594 -1.1248 0.9858
3.3748 -0.2380 -1.1246 0.9858
3.3741 0.2487 -1.1246 0.9858
3.3635 0.3700 -1.1248 0.9858
3.3488 0.4909 -1.1250 0.9858
3.2798 0.8499 -1.1262 0.9858
3.2487 0.9678 -1.1268 0.9858
3.1743 1.2004 -1.1281 0.9858
2.1828 1.1075 -0.8136 0.9897
1.9971 1.1054 -0.7588 0.9904
1.8378 1.1054 -0.7129 0.9910
1.6964 1.1054 -0.6730 0.9915
1.4585 1.1076 -0.6088 0.9923
1.4400 1.2668 -0.6375 0.9919
2.4918 2.3564 -1.1400 0.9856
2.0437 2.7834 -1.1478 0.9855
1.9451 2.8594 -1.1495 0.9855
1.8438 2.9321 -1.1513 0.9855
1.7398 3.0012 -1.1531 0.9855
1.6333 3.0668 -1.1550 0.9855
1.5244 3.1288 -1.1569 0.9854
1.4131 3.1869 -1.1588 0.9854
1.1843 3.2916 -1.1628 0.9854
0.8271 3.4183 -1.1691 0.9853
0.4563 3.5069 -1.1755 0.9852
0.3305 3.5276 -1.1777 0.9852
0.2037 3.5439 -1.1799 0.9851
-0.0519 3.5627 -1.1844 0.9851
-0.1805 3.5653 -1.1866 0.9851
-0.3092 3.5632 -1.1889 0.9850
-0.5669 3.5451 -1.1934 0.9850
-0.8235 3.5083 -1.1979 0.9849
-0.9510 3.4828 -1.2001 0.9849
-1.3280 3.3785 -1.2067 0.9848
-1.4513 3.3344 -1.2088 0.9848
-1.9279 3.1130 -1.2171 0.9847
-2.0421 3.0465 -1.2191 0.9847
-1.0293 1.2258 -0.5321 0.9933
-1.3886 1.1054 -0.6347 0.9925
-1.4960 1.1054 -0.6652 0.9921
-1.6126 1.1041 -0.6989 0.9917
-2.9166 1.8463 -1.2344 0.9854
-3.1069 1.5253 -1.2377 0.9854
-3.1623 1.4136 -1.2387 0.9854
-3.2134 1.2998 -1.2396 0.9854
-3.2602 1.1841 -1.2404 0.9854
-3.3027 1.0666 -1.2411 0.9854
-3.3408 0.9476 -1.2418 0.9854
-3.4032 0.7055 -1.2429 0.9853
-3.4473 0.4591 -1.2437 0.9853
-3.4623 0.3348 -1.2439 0.9853
-3.4726 0.2101 -1.2441 0.9853
-3.4782 0.0850 -1.2442 0.9853
-3.4752 -0.1654 -1.2442 0.9853
-3.4665 -0.2904 -1.2440 0.9853
-3.4532 -0.4148 -1.2438 0.9853
-1.5030 -0.2915 -0.5475 0.9935
-1.3583 -0.3145 -0.4986 0.9941
-1.2317 -0.4295 -0.4665 0.9945
-1.2207 -0.4756 -0.4685 0.9945
-1.2085 -0.5217 -0.4707 0.9944
-3.1271 -1.4857 -1.2381 0.9854
-3.0691 -1.5959 -1.2371 0.9854
-3.0071 -1.7039 -1.2360 0.9854
-2.8313 -1.7417 -1.1887 0.9860
-2.4560 -1.7663 -1.0818 0.9872
-2.3876 -1.8511 -1.0804 0.9872
-2.3168 -1.9336 -1.0791 0.9873
-2.2430 -2.0133 -1.0778 0.9873
-2.1664 -2.0901 -1.0765 0.9873
-2.0052 -2.2347 -1.0737 0.9873
-1.6543 -2.4850 -1.0676 0.9874
-1.2788 -2.0795 -0.8730 0.9897
-1.1677 -2.0616 -0.8473 0.9900
-1.1012 -2.1184 -0.8538 0.9899
-1.0731 -2.7554 -1.0574 0.9875
-0.7660 -2.8405 -1.0521 0.9876
-0.4530 -2.8914 -1.0466 0.9876
0.1989 -2.0534 -0.7378 0.9913
0.2771 -2.0781 -0.7497 0.9911
0.4833 -2.8401 -1.0303 0.9878
0.5842 -2.8161 -1.0285 0.9879
0.7826 -2.7575 -1.0250 0.9879
0.8799 -2.7230 -1.0233 0.9879
0.9757 -2.6852 -1.0217 0.9879
1.2534 -2.5522 -1.0168 0.9880
1.3424 -2.5016 -1.0153 0.9880
1.4294 -2.4480 -1.0137 0.9880
1.5144 -2.3915 -1.0123 0.9880
1.5269 -2.2295 -0.9664 0.9886
1.6392 -2.0584 -0.9410 0.9889
1.8318 -2.1377 -1.0067 0.9881
2.0440 -1.9207 -1.0030 0.9882
2.1094 -1.8438 -1.0019 0.9882
2.1734 -1.7659 -1.0014 0.9882
2.3229 -1.7525 -1.0406 0.9877
2.4924 -1.7433 -1.0877 0.9872
2.6691 -1.7272 -1.1369 0.9866
2.7271 -1.6286 -1.1359 0.9866
2.7816 -1.5281 -1.1349 0.9866
2.8326 -1.4259 -1.1341 0.9866
2.8799 -1.3221 -1.1332 0.9866
2.9237 -1.2168 -1.1325 0.9866
1.4890 -0.4974 -0.5614 0.9934
1.7443 -0.3145 -0.6338 0.9925
2.1827 -0.3129 -0.7885 0.9907
3.1533 0.1185 -1.1285 0.9867
3.1374 0.3451 -1.1287 0.9867
3.1236 0.4579 -1.1290 0.9867
3.0845 0.6818 -1.1297 0.9867
3.0591 0.7927 -1.1301 0.9867
3.0300 0.9027 -1.1306 0.9867
2.9971 1.0116 -1.1312 0.9867
2.8759 1.3312 -1.1333 0.9866
2.1832 1.1077 -0.8755 0.9897
1.9971 1.1054 -0.8163 0.9904
1.8378 1.1054 -0.7669 0.9909
1.6964 1.1054 -0.7241 0.9914
1.4312 1.1704 -0.6612 0.9922
2.2443 2.2809 -1.1443 0.9865
2.0797 2.4425 -1.1472 0.9865
1.9931 2.5191 -1.1487 0.9864
1.9037 2.5927 -1.1503 0.9864
1.8117 2.6633 -1.1519 0.9864
1.6201 2.7948 -1.1552 0.9864
1.5208 2.8556 -1.1569 0.9864
1.2098 3.0169 -1.1624 0.9863
0.8819 3.1451 -1.1681 0.9862
0.6556 3.2112 -1.1721 0.9862
0.5405 3.2383 -1.1741 0.9861
0.4244 3.2613 -1.1761 0.9861
0.3073 3.2801 -1.1781 0.9861
0.1894 3.2948 -1.1802 0.9861
0.0708 3.3053 -1.1823 0.9861
-0.0483 3.3115 -1.1843 0.9860
-0.6459 3.2780 -1.1948 0.9859
-0.7648 3.2583 -1.1968 0.9859
-1.1172 3.1731 -1.2030 0.9858
-1.3470 3.0948 -1.2070 0.9858
-1.5712 2.9996 -1.2109 0.9857
-0.9751 1.2500 -0.5669 0.9933
-1.3886 1.1054 -0.6801 0.9924
-1.4960 1.1054 -0.7128 0.9921
-2.8353 1.5209 -1.2330 0.9863
-2.9892 1.2091 -1.2357 0.9863
-3.0720 0.9921 -1.2371 0.9863
-3.2295 0.1954 -1.2399 0.9862
-3.2355 -0.0374 -1.2400 0.9862
-3.2239 -0.2700 -1.2398 0.9862
-3.2115 -0.3858 -1.2396 0.9862
-3.1948 -0.5010 -1.2393 0.9862
-1.1844 -0.3658 -0.4750 0.9947
-1.1748 -0.4097 -0.4768 0.9947
-1.1521 -0.4974 -0.4809 0.9946
-1.1390 -0.5411 -0.4833 0.9946
-2.7978 -1.5853 -1.2323 0.9863
-2.6107 -1.7386 -1.2020 0.9867
-2.2657 -1.7566 -1.0987 0.9878
-2.0878 -1.8740 -1.0751 0.9881
-1.8670 -2.0806 -1.0713 0.9881
-1.7081 -2.2038 -1.0685 0.9881
-1.6254 -2.2608 -1.0671 0.9881
-1.5409 -2.3146 -1.0656 0.9882
-1.1859 -2.4972 -1.0594 0.9882
-1.0936 -2.5344 -1.0578 0.9882
-1.0001 -2.5681 -1.0562 0.9883
-0.7141 -2.6484 -1.0512 0.9883
-0.6174 -2.6681 -1.0495 0.9883
-0.5201 -2.6842 -1.0478 0.9884
-0.4225 -2.6968 -1.0461 0.9884
-0.2267 -2.7113 -1.0426 0.9884
-0.1287 -2.7133 -1.0409 0.9884
0.0665 -2.7066 -1.0375 0.9885
0.1264 -2.0835 -0.7999 0.9911
0.2770 -2.0776 -0.8032 0.9911
0.5455 -2.6296 -1.0292 0.9886
0.6388 -2.6041 -1.0275 0.9886
0.8219 -2.5435 -1.0243 0.9886
0.9115 -2.5085 -1.0228 0.9886
1.2546 -2.3379 -1.0168 0.9887
1.4931 -2.1801 -1.0126 0.9887
1.5413 -2.0854 -0.9937 0.9890
1.9117 -1.7965 -1.0053 0.9888
2.1525 -1.7490 -1.0628 0.9882
2.4973 -1.6160 -1.1399 0.9873
2.5517 -1.5238 -1.1390 0.9873
2.6028 -1.4299 -1.1381 0.9874
2.6951 -1.2372 -1.1365 0.9874
1.4749 -0.3772 -0.5834 0.9935
1.4774 -0.3217 -0.5794 0.9935
2.1830 -0.3130 -0.8451 0.9906
2.9468 -0.2078 -1.1321 0.9874
2.9518 0.1110 -1.1320 0.9874
2.9461 0.2171 -1.1321 0.9874
2.9239 0.4286 -1.1325 0.9874
2.9073 0.5337 -1.1327 0.9874
2.8360 0.8449 -1.1340 0.9874
2.7706 1.0477 -1.1351 0.9874
1.9971 1.1054 -0.8747 0.9903
1.5698 1.1054 -0.7358 0.9918
1.4556 1.1054 -0.7004 0.9922
1.4157 1.3388 -0.7467 0.9917
2.0990 2.1332 -1.1469 0.9873
2.0232 2.2099 -1.1482 0.9872
1.9447 2.2840 -1.1496 0.9872
1.8635 2.3554 -1.1510 0.9872
1.7798 2.4240 -1.1524 0.9872
1.6936 2.4897 -1.1539 0.9872
1.6051 2.5525 -1.1555 0.9872
1.5142 2.6122 -1.1571 0.9871
1.2292 2.7720 -1.1620 0.9871
1.1303 2.8186 -1.1638 0.9871
0.9274 2.9014 -1.1673 0.9870
0.8237 2.9375 -1.1691 0.9870
0.1767 3.0752 -1.1804 0.9869
-0.0451 3.0900 -1.1843 0.9868
-0.1565 3.0915 -1.1862 0.9868
-0.3797 3.0823 -1.1901 0.9868
-0.6024 3.0570 -1.1940 0.9867
-0.7131 3.0382 -1.1959 0.9867
-0.8233 3.0154 -1.1979 0.9867
-0.9328 2.9886 -1.1998 0.9867
-1.0414 2.9578 -1.2017 0.9867
-1.1490 2.9229 -1.2035 0.9866
-1.3604 2.8414 -1.2072 0.9866
-1.4639 2.7948 -1.2090 0.9866
-1.5659 2.7443 -1.2108 0.9866
-1.7642 2.6321 -1.2143 0.9865
-0.9399 1.2987 -0.6143 0.9932
-0.9665 1.1510 -0.5760 0.9936
-1.6282 1.1147 -0.8076 0.9915
-2.6477 1.4203 -1.2297 0.9871
-2.6991 1.3251 -1.2306 0.9871
-2.7910 1.1290 -1.2322 0.9871
-2.8681 0.9263 -1.2336 0.9871
-2.9010 0.8229 -1.2341 0.9871
-2.9929 0.3986 -1.2357 0.9870
-3.0147 0.1824 -1.2361 0.9870
-3.0196 0.0738 -1.2362 0.9870
-3.0203 -0.0350 -1.2362 0.9870
-3.0169 -0.1436 -1.2362 0.9870
-3.0095 -0.2521 -1.2360 0.9870
-1.3583 -0.3145 -0.5706 0.9940
-1.1220 -0.3913 -0.4863 0.9949
-1.1115 -0.4331 -0.4882 0.9949
-1.0999 -0.4748 -0.4903 0.9948
-2.6665 -1.3865 -1.2300 0.9871
-2.6128 -1.4805 -1.2291 0.9871
-2.5558 -1.5723 -1.2281 0.9871
-2.4954 -1.6618 -1.2271 0.9871
-2.4128 -1.7353 -1.2164 0.9872
-2.0995 -1.7523 -1.1192 0.9883
-1.9616 -1.7607 -1.0788 0.9887
-1.8156 -1.8824 -1.0704 0.9888
-1.6715 -2.0034 -1.0679 0.9888
-1.4404 -2.1637 -1.0638 0.9888
-1.1673 -2.0609 -0.9694 0.9898
-1.1090 -2.3352 -1.0581 0.9889
-1.0228 -2.3702 -1.0565 0.9889
-0.7580 -2.4559 -1.0519 0.9890
-0.6682 -2.4779 -1.0504 0.9890
-0.5777 -2.4966 -1.0488 0.9890
-0.3954 -2.5240 -1.0456 0.9890
-0.2122 -2.5381 -1.0424 0.9891
-0.1205 -2.5402 -1.0408 0.9891
0.0623 -2.5345 -1.0376 0.9891
0.4227 -2.4841 -1.0313 0.9892
0.8543 -2.3511 -1.0238 0.9892
0.9370 -2.3155 -1.0223 0.9893
1.2528 -2.1455 -1.0168 0.9893
1.3275 -2.0963 -1.0155 0.9893
1.4003 -2.0446 -1.0143 0.9893
1.4712 -1.9905 -1.0130 0.9894
1.7435 -1.7607 -1.0141 0.9893
2.2324 -1.6842 -1.1445 0.9880
2.2896 -1.6014 -1.1435 0.9880
2.3438 -1.5167 -1.1426 0.9880
2.3950 -1.4303 -1.1417 0.9880
2.4431 -1.3422 -1.1409 0.9880
2.4881 -1.2525 -1.1401 0.9880
1.4441 -0.5409 -0.6311 0.9934
1.4482 -0.4837 -0.6249 0.9934
1.4517 -0.4275 -0.6194 0.9935
1.4548 -0.3721 -0.6146 0.9935
1.4574 -0.3173 -0.6105 0.9936
1.7443 -0.3145 -0.7254 0.9924
2.1833 -0.3130 -0.9027 0.9905
2.7668 -0.1951 -1.1352 0.9881
2.7718 -0.0954 -1.1351 0.9881
2.7734 0.0044 -1.1351 0.9881
2.7715 0.1042 -1.1351 0.9881
2.7662 0.2039 -1.1352 0.9881
2.6334 0.8889 -1.1375 0.9881
2.5653 1.0771 -1.1387 0.9880
2.5264 1.1694 -1.1394 0.9880
1.9971 1.1054 -0.9342 0.9902
1.8378 1.1054 -0.8777 0.9908
1.4556 1.1054 -0.7480 0.9921
1.4116 1.2418 -0.7695 0.9919
1.4091 1.3325 -0.7937 0.9917
1.8242 2.1425 -1.1517 0.9879
1.5883 2.3349 -1.1558 0.9879
1.4199 2.4493 -1.1587 0.9878
1.2433 2.5519 -1.1618 0.9878
1.1522 2.5985 -1.1634 0.9878
1.0595 2.6420 -1.1650 0.9878
0.9650 2.6822 -1.1666 0.9878
0.8691 2.7191 -1.1683 0.9877
0.6733 2.7827 -1.1717 0.9877
0.5735 2.8093 -1.1735 0.9877
0.4728 2.8323 -1.1752 0.9877
0.3711 2.8518 -1.1770 0.9876
-0.0422 2.8932 -1.1842 0.9876
-0.1465 2.8942 -1.1861 0.9876
-0.4597 2.8748 -1.1915 0.9875
-0.5637 2.8607 -1.1933 0.9875
-0.6673 2.8429 -1.1951 0.9875
-0.7703 2.8213 -1.1969 0.9874
-0.8727 2.7959 -1.1987 0.9874
-0.9742 2.7667 -1.2005 0.9874
-1.0746 2.7339 -1.2023 0.9874
-1.2721 2.6571 -1.2057 0.9873
-1.4640 2.5658 -1.2090 0.9873
-0.9204 1.2717 -0.6425 0.9932
-0.9477 1.1286 -0.6032 0.9937
-1.3886 1.1054 -0.7735 0.9923
-2.5286 1.2414 -1.2276 0.9878
-2.5732 1.1503 -1.2284 0.9878
-2.6523 0.9633 -1.2298 0.9878
-2.7676 0.5737 -1.2318 0.9877
-2.7872 0.4739 -1.2321 0.9877
-2.8235 0.1708 -1.2328 0.9877
-2.8287 -0.0327 -1.2329 0.9877
-2.8078 -0.3373 -1.2325 0.9877
-1.6145 -0.2532 -0.7122 0.9929
-1.0862 -0.3355 -0.4955 0.9951
-1.0809 -0.3769 -0.4989 0.9950
-1.0608 -0.5040 -0.5118 0.9949
-1.0527 -0.5474 -0.5171 0.9948
-2.0852 -1.7403 -1.1837 0.9882
-1.6355 -1.8226 -1.0672 0.9894
-1.5671 -1.8782 -1.0660 0.9894
-1.4246 -1.9814 -1.0636 0.9894
-1.2752 -2.0737 -1.0610 0.9894
-1.1671 -2.0605 -1.0320 0.9897
-1.0994 -2.1150 -1.0388 0.9897
-0.9595 -2.2236 -1.0554 0.9895
-0.7949 -2.2806 -1.0526 0.9895
-0.7113 -2.3045 -1.0511 0.9895
-0.6270 -2.3254 -1.0496 0.9895
-0.5422 -2.3431 -1.0482 0.9896
-0.1992 -2.3830 -1.0422 0.9896
0.1264 -2.0842 -0.9100 0.9909
0.6437 -2.2680 -1.0275 0.9898
0.7239 -2.2403 -1.0261 0.9898
0.8030 -2.2098 -1.0247 0.9898
0.9573 -2.1407 -1.0220 0.9898
1.1060 -2.0610 -1.0194 0.9898
1.1780 -2.0174 -1.0181 0.9899
1.3169 -1.9228 -1.0157 0.9899
1.6169 -1.7549 -1.0400 0.9896
1.8532 -1.7415 -1.1083 0.9890
2.1007 -1.5848 -1.1468 0.9886
2.1546 -1.5070 -1.1459 0.9886
2.2540 -1.3461 -1.1442 0.9886
2.2994 -1.2632 -1.1434 0.9886
1.4304 -0.5357 -0.6657 0.9934
1.4318 -0.4783 -0.6579 0.9934
1.4445 -0.3145 -0.6443 0.9936
1.7443 -0.3145 -0.7724 0.9923
2.5856 -0.3707 -1.1384 0.9887
2.5968 -0.2774 -1.1382 0.9887
2.6048 -0.1837 -1.1380 0.9887
2.6095 -0.0898 -1.1379 0.9887
2.6110 0.0041 -1.1379 0.9887
2.6092 0.0981 -1.1380 0.9887
2.5960 0.2856 -1.1382 0.9887
2.5844 0.3789 -1.1384 0.9887
2.5697 0.4717 -1.1386 0.9887
2.5063 0.7467 -1.1397 0.9887
2.4483 0.9258 -1.1408 0.9886
2.3779 1.1007 -1.1420 0.9886
2.3382 1.1863 -1.1427 0.9886
1.5698 1.1054 -0.8367 0.9917
1.4556 1.1054 -0.7966 0.9921
1.4151 1.2449 -0.8214 0.9918
1.4220 1.3447 -0.8529 0.9915
1.7854 1.9502 -1.1523 0.9885
1.7159 2.0153 -1.1535 0.9885
1.6441 2.0780 -1.1548 0.9885
1.2529 2.3526 -1.1616 0.9884
1.0832 2.4428 -1.1646 0.9884
0.9071 2.5210 -1.1677 0.9884
0.8168 2.5555 -1.1692 0.9884
0.6326 2.6148 -1.1725 0.9883
0.3486 2.6790 -1.1774 0.9883
0.2523 2.6937 -1.1791 0.9883
0.1555 2.7049 -1.1808 0.9882
-0.0396 2.7169 -1.1842 0.9882
-0.1376 2.7176 -1.1859 0.9882
-0.5291 2.6851 -1.1927 0.9881
-0.6263 2.6681 -1.1944 0.9881
-0.7229 2.6476 -1.1961 0.9881
-0.9140 2.5960 -1.1994 0.9881
-1.1014 2.5304 -1.2027 0.9880
-1.1933 2.4924 -1.2043 0.9880
-1.4606 2.3584 -1.2090 0.9880
-0.8874 1.3240 -0.6946 0.9931
-0.9013 1.2453 -0.6700 0.9933
-1.3886 1.1054 -0.8215 0.9922
-1.4960 1.1054 -0.8610 0.9918
-1.6447 1.1260 -0.9226 0.9913
-2.2825 1.3323 -1.2233 0.9884
-2.4174 1.0806 -1.2257 0.9884
-2.4561 0.9935 -1.2264 0.9884
-2.5523 0.7240 -1.2280 0.9884
-2.5777 0.6319 -1.2285 0.9884
-2.5995 0.5389 -1.2289 0.9884
-2.6519 0.1604 -1.2298 0.9884
-2.6568 -0.0308 -1.2299 0.9884
-2.6473 -0.2217 -1.2297 0.9884
-2.6373 -0.3168 -1.2295 0.9884
-1.6221 -0.3146 -0.7648 0.9927
-1.3583 -0.3145 -0.6454 0.9939
-1.0536 -0.3674 -0.5165 0.9951
-1.0475 -0.4081 -0.5204 0.9951
-2.3000 -1.3032 -1.2236 0.9884
-2.1970 -1.4631 -1.2218 0.9884
-2.1413 -1.5400 -1.2209 0.9884
-2.0827 -1.6147 -1.2198 0.9885
-1.4071 -1.8156 -1.0633 0.9899
-1.3394 -1.8629 -1.0621 0.9899
-1.2749 -1.9150 -1.0649 0.9899
-0.9784 -2.0603 -1.0558 0.9900
-0.9025 -2.0916 -1.0544 0.9900
-0.8256 -2.1200 -1.0531 0.9900
-0.7478 -2.1456 -1.0517 0.9900
-0.6693 -2.1683 -1.0504 0.9900
-0.5900 -2.1880 -1.0490 0.9901
-0.5102 -2.2049 -1.0476 0.9901
-0.3494 -2.2299 -1.0448 0.9901
-0.1875 -2.2432 -1.0420 0.9901
-0.0256 -2.2448 -1.0391 0.9902
0.0551 -2.2412 -1.0377 0.9902
0.1264 -2.0850 -0.9669 0.9908
0.4523 -2.1805 -1.0308 0.9902
0.6820 -2.1108 -1.0268 0.9903
0.9022 -2.0174 -1.0229 0.9903
1.0425 -1.9426 -1.0205 0.9903
1.1768 -1.8583 -1.0182 0.9904
1.2415 -1.8128 -1.0170 0.9904
1.3053 -1.7660 -1.0165 0.9904
1.4998 -1.7503 -1.0670 0.9899
1.8134 -1.7040 -1.1518 0.9891
1.8719 -1.6362 -1.1508 0.9891
2.1263 -1.2698 -1.1464 0.9891
2.1692 -1.1917 -1.1456 0.9892
2.2093 -1.1122 -1.1449 0.9892
2.2466 -1.0314 -1.1443 0.9892
2.2811 -0.9493 -1.1437 0.9892
1.4235 -0.5332 -0.7036 0.9933
1.4445 -0.3145 -0.6843 0.9935
2.4398 -0.3498 -1.1409 0.9892
2.4580 -0.1734 -1.1406 0.9892
2.4639 0.0039 -1.1405 0.9892
2.4622 0.0926 -1.1405 0.9892
2.4574 0.1811 -1.1406 0.9892
2.4496 0.2695 -1.1407 0.9892
2.4388 0.3575 -1.1409 0.9892
2.4248 0.4451 -1.1412 0.9892
2.4079 0.5323 -1.1415 0.9892
2.3879 0.6188 -1.1418 0.9892
2.3649 0.7045 -1.1422 0.9892
2.3100 0.8735 -1.1432 0.9892
2.2059 1.1192 -1.1450 0.9892
1.9971 1.1054 -1.0566 0.9900
1.5698 1.1054 -0.8887 0.9916
1.4213 1.1623 -0.8499 0.9919
1.4279 1.2561 -0.8803 0.9917
1.6180 1.9003 -1.1553 0.9891
1.4082 2.0701 -1.1589 0.9890
1.1809 2.2174 -1.1629 0.9890
0.8547 2.3755 -1.1686 0.9889
0.7696 2.4077 -1.1701 0.9889
0.6834 2.4370 -1.1716 0.9889
0.4184 2.5063 -1.1762 0.9889
0.1464 2.5471 -1.1809 0.9888
0.0547 2.5541 -1.1825 0.9888
-0.4979 2.5270 -1.1922 0.9887
-0.6802 2.4912 -1.1954 0.9887
-0.7704 2.4684 -1.1969 0.9887
-0.8599 2.4422 -1.1985 0.9887
-0.9484 2.4128 -1.2000 0.9886
-1.0360 2.3802 -1.2016 0.9886
-1.1224 2.3443 -1.2031 0.9886
-1.2912 2.2630 -1.2060 0.9886
-0.8863 1.2246 -0.6997 0.9934
-1.4960 1.1054 -0.9124 0.9917
-2.0511 1.4042 -1.2193 0.9890
-2.2373 1.0983 -1.2225 0.9890
-2.2766 1.0177 -1.2232 0.9890
-2.3130 0.9356 -1.2239 0.9889
-2.3463 0.8521 -1.2244 0.9889
-2.4034 0.6817 -1.2254 0.9889
-2.4272 0.5950 -1.2259 0.9889
-2.4478 0.5074 -1.2262 0.9889
-2.4651 0.4191 -1.2265 0.9889
-2.4970 0.1510 -1.2271 0.9889
-2.4927 -0.2088 -1.2270 0.9889
-2.4832 -0.2983 -1.2268 0.9889
-1.6291 -0.3159 -0.8140 0.9926
-1.3583 -0.3145 -0.6839 0.9938
-1.0209 -0.3978 -0.5375 0.9951
-1.0142 -0.4378 -0.5418 0.9951
-1.0066 -0.4782 -0.5467 0.9950
-2.1662 -1.2274 -1.2213 0.9890
-1.9620 -1.5211 -1.2177 0.9890
-1.8443 -1.6555 -1.2157 0.9890
-1.7820 -1.7192 -1.2146 0.9890
-1.5657 -1.7448 -1.1499 0.9896
-1.4604 -1.7504 -1.1182 0.9899
-1.1303 -1.8380 -1.0584 0.9904
-1.0622 -1.8754 -1.0572 0.9904
-0.9225 -1.9424 -1.0548 0.9905
-0.3296 -2.1036 -1.0444 0.9906
-0.2533 -2.1114 -1.0431 0.9906
-0.1005 -2.1187 -1.0404 0.9906
-0.0242 -2.1182 -1.0391 0.9906
0.0520 -2.1150 -1.0378 0.9906
0.4270 -2.0585 -1.0312 0.9907
0.8560 -1.9142 -1.0286 0.9907
0.9191 -1.8713 -1.0227 0.9908
1.1161 -1.7625 -1.0233 0.9907
1.2023 -1.7556 -1.0437 0.9906
1.5964 -1.7326 -1.1556 0.9896
1.9211 -1.3437 -1.1500 0.9896
2.0100 -1.2004 -1.1484 0.9896
2.0887 -1.0514 -1.1470 0.9896
1.4181 -0.4737 -0.7334 0.9934
1.4207 -0.3633 -0.7193 0.9935
1.4445 -0.3145 -0.7251 0.9934
2.3285 -0.0802 -1.1429 0.9897
2.3060 0.3381 -1.1432 0.9897
2.2928 0.4209 -1.1435 0.9897
2.2767 0.5033 -1.1438 0.9897
2.2360 0.6661 -1.1445 0.9897
2.2114 0.7465 -1.1449 0.9897
2.1841 0.8259 -1.1454 0.9897
2.1210 0.9818 -1.1465 0.9896
1.8378 1.1054 -1.0520 0.9905
1.6964 1.1054 -0.9932 0.9910
1.5698 1.1054 -0.9418 0.9915
1.7088 1.6160 -1.1537 0.9896
1.6510 1.6779 -1.1547 0.9896
1.5910 1.7378 -1.1557 0.9896
1.5289 1.7956 -1.1568 0.9895
1.3985 1.9047 -1.1591 0.9895
1.3304 1.9558 -1.1603 0.9895
1.1155 2.0945 -1.1640 0.9895
1.0405 2.1357 -1.1653 0.9895
0.8863 2.2101 -1.1680 0.9894
0.7267 2.2735 -1.1708 0.9894
0.6452 2.3010 -1.1722 0.9894
0.5627 2.3256 -1.1737 0.9894
0.4792 2.3472 -1.1751 0.9894
0.3099 2.3816 -1.1781 0.9894
0.2243 2.3943 -1.1796 0.9893
0.1382 2.4038 -1.1811 0.9893
0.0516 2.4103 -1.1826 0.9893
-0.1222 2.4140 -1.1856 0.9893
-0.2093 2.4111 -1.1871 0.9893
-0.2963 2.4051 -1.1887 0.9893
-0.3831 2.3959 -1.1902 0.9892
-0.4697 2.3836 -1.1917 0.9892
-0.5559 2.3681 -1.1932 0.9892
-0.7266 2.3278 -1.1962 0.9892
-0.8109 2.3030 -1.1976 0.9892
-0.8943 2.2751 -1.1991 0.9892
-1.0581 2.2101 -1.2020 0.9891
-1.1383 2.1731 -1.2034 0.9891
-1.2172 2.1332 -1.2047 0.9891
-0.8715 1.3002 -0.7678 0.9931
-0.8786 1.2140 -0.7351 0.9933
-1.4960 1.1054 -0.9650 0.9917
-2.0718 1.1113 -1.2197 0.9895
-2.1487 0.9605 -1.2210 0.9895
-2.2681 0.6434 -1.2231 0.9894
-2.3099 0.4788 -1.2238 0.9894
-2.3262 0.3955 -1.2241 0.9894
-2.3394 0.3116 -1.2243 0.9894
-2.3494 0.2272 -1.2245 0.9894
-2.3600 0.0576 -1.2247 0.9894
-2.3606 -0.0273 -1.2247 0.9894
-2.3433 -0.2815 -1.2244 0.9894
-1.6355 -0.2565 -0.8588 0.9926
-1.6364 -0.3173 -0.8647 0.9925
-1.1657 -0.3145 -0.6263 0.9946
-1.0013 -0.3492 -0.5501 0.9952
-0.9808 -0.4660 -0.5633 0.9951
-0.9725 -0.5057 -0.5686 0.9951
-2.0004 -1.2306 -1.2184 0.9895
-1.9535 -1.3009 -1.2176 0.9895
-1.9041 -1.3694 -1.2167 0.9895
-1.8522 -1.4360 -1.2158 0.9895
-1.7979 -1.5005 -1.2149 0.9895
-1.6825 -1.6233 -1.2129 0.9895
-1.6216 -1.6813 -1.2118 0.9895
-1.5559 -1.7339 -1.2086 0.9896
-1.4515 -1.7397 -1.1754 0.9898
-1.3524 -1.7450 -1.1453 0.9901
-1.0811 -1.7580 -1.0706 0.9907
-1.0034 -1.7715 -1.0562 0.9909
-0.9380 -1.8045 -1.0551 0.9909
-0.8715 -1.8351 -1.0539 0.9909
-0.8040 -1.8632 -1.0527 0.9909
-0.6680 -1.9165 -1.0529 0.9909
-0.5964 -1.9323 -1.0491 0.9909
-0.4548 -1.9656 -1.0466 0.9909
-0.3833 -1.9783 -1.0454 0.9910
-0.3115 -1.9884 -1.0441 0.9910
-0.1673 -2.0008 -1.0416 0.9910
-0.0951 -2.0031 -1.0404 0.9910
-0.0229 -2.0028 -1.0391 0.9910
0.1924 -1.9864 -1.0353 0.9910
0.2635 -1.9758 -1.0341 0.9911
0.4039 -1.9471 -1.0316 0.9911
0.4732 -1.9291 -1.0304 0.9911
0.6093 -1.8857 -1.0281 0.9911
0.6760 -1.8604 -1.0269 0.9911
0.7417 -1.8328 -1.0257 0.9911
0.8063 -1.8030 -1.0246 0.9911
0.8697 -1.7709 -1.0235 0.9911
1.0243 -1.7543 -1.0539 0.9909
1.1083 -1.7501 -1.0747 0.9907
1.1955 -1.7456 -1.0976 0.9905
1.4526 -1.6952 -1.1581 0.9900
1.7255 -1.4020 -1.1534 0.9900
1.7735 -1.3380 -1.1525 0.9900
1.8193 -1.2724 -1.1517 0.9900
1.8627 -1.2054 -1.1510 0.9901
2.0118 -0.9235 -1.1484 0.9901
2.0427 -0.8501 -1.1478 0.9901
1.4112 -0.4714 -0.7719 0.9933
1.4445 -0.3145 -0.7669 0.9934
1.7443 -0.3145 -0.9195 0.9920
2.1854 -0.3133 -1.1453 0.9901
2.1950 -0.2344 -1.1452 0.9901
2.2018 -0.1553 -1.1451 0.9901
2.2055 0.0829 -1.1450 0.9901
2.1845 0.3202 -1.1454 0.9901
2.1567 0.4767 -1.1458 0.9901
2.0947 0.7071 -1.1469 0.9901
2.0687 0.7823 -1.1474 0.9901
1.9752 1.0021 -1.1490 0.9901
1.9389 1.0732 -1.1497 0.9901
1.8378 1.1054 -1.1126 0.9904
1.6964 1.1054 -1.0504 0.9909
1.4556 1.1054 -0.9482 0.9918
1.6707 1.4697 -1.1543 0.9900
1.5063 1.6453 -1.1572 0.9900
1.2593 1.8512 -1.1615 0.9900
1.0557 1.9822 -1.1651 0.9899
0.8386 2.0912 -1.1689 0.9899
0.7636 2.1224 -1.1702 0.9899
0.5323 2.1999 -1.1742 0.9899
0.4533 2.2203 -1.1756 0.9898
-0.0333 2.2822 -1.1841 0.9898
-0.1155 2.2823 -1.1855 0.9898
-0.3621 2.2647 -1.1898 0.9897
-0.4439 2.2529 -1.1912 0.9897
-0.6063 2.2204 -1.1941 0.9897
-0.6866 2.1997 -1.1955 0.9897
-0.8450 2.1496 -1.1982 0.9896
-0.9228 2.1202 -1.1996 0.9896
-1.0753 2.0529 -1.2023 0.9896
-1.1498 2.0150 -1.2036 0.9896
-1.2228 1.9745 -1.2048 0.9896
-0.8709 1.2033 -0.7706 0.9933
-1.4960 1.1054 -1.0188 0.9916
-1.9968 0.9803 -1.2183 0.9899
-2.0318 0.9083 -1.2190 0.9899
-2.0641 0.8349 -1.2195 0.9899
-2.1657 0.5309 -1.2213 0.9899
-2.1840 0.4527 -1.2216 0.9899
-2.2118 0.2946 -1.2221 0.9899
-2.2213 0.2148 -1.2223 0.9899
-2.2155 -0.2662 -1.2222 0.9899
-1.6430 -0.2577 -0.9109 0.9924
-1.6439 -0.3188 -0.9171 0.9924
-1.3583 -0.3145 -0.7636 0.9937
-1.0184 -0.3145 -0.5838 0.9952
-0.9704 -0.3781 -0.5704 0.9953
-1.8918 -1.1638 -1.2165 0.9899
-1.8008 -1.2952 -1.2149 0.9899
-1.7518 -1.3582 -1.2141 0.9899
-1.7006 -1.4193 -1.2132 0.9899
-1.6471 -1.4784 -1.2122 0.9900
-1.5916 -1.5355 -1.2113 0.9900
-1.4745 -1.6433 -1.2092 0.9900
-1.4132 -1.6937 -1.2082 0.9900
-1.3443 -1.7345 -1.2019 0.9900
-1.2506 -1.7395 -1.1734 0.9903
-1.0750 -1.7481 -1.1240 0.9907
-0.9922 -1.7517 -1.1026 0.9909
-0.8349 -1.7580 -1.0659 0.9912
-0.5646 -1.8293 -1.0485 0.9913
-0.4979 -1.8464 -1.0474 0.9913
-0.3630 -1.8732 -1.0450 0.9913
-0.2950 -1.8829 -1.0438 0.9913
0.0466 -1.8944 -1.0379 0.9914
0.2496 -1.8719 -1.0343 0.9914
0.3827 -1.8450 -1.0320 0.9914
0.5775 -1.7871 -1.0286 0.9915
0.6415 -1.7653 -1.0287 0.9915
0.7849 -1.7552 -1.0531 0.9913
1.0187 -1.7445 -1.1065 0.9908
1.1020 -1.7402 -1.1282 0.9906
1.2605 -1.7054 -1.1615 0.9904
1.3199 -1.6575 -1.1605 0.9904
1.3775 -1.6075 -1.1595 0.9904
1.4332 -1.5556 -1.1585 0.9904
1.5389 -1.4461 -1.1566 0.9904
1.9085 -0.8761 -1.1502 0.9905
1.9379 -0.8065 -1.1497 0.9905
1.4141 -0.4723 -0.8165 0.9932
1.4098 -0.3606 -0.7970 0.9934
1.4445 -0.3145 -0.8097 0.9933
1.7443 -0.3145 -0.9707 0.9919
2.0826 -0.2224 -1.1471 0.9905
2.0929 -0.0721 -1.1470 0.9905
2.0941 0.0033 -1.1469 0.9905
2.0607 0.3783 -1.1475 0.9905
2.0462 0.4523 -1.1478 0.9905
2.0291 0.5258 -1.1481 0.9905
1.9626 0.7422 -1.1492 0.9905
1.9058 0.8822 -1.1502 0.9905
1.8738 0.9507 -1.1508 0.9905
1.8393 1.0180 -1.1514 0.9905
1.5178 1.1526 -1.0439 0.9913
1.5845 1.3939 -1.1558 0.9904
1.5345 1.4511 -1.1567 0.9904
1.4824 1.5066 -1.1576 0.9904
1.3725 1.6119 -1.1595 0.9904
1.2552 1.7095 -1.1616 0.9904
1.0666 1.8400 -1.1649 0.9903
0.9334 1.9158 -1.1672 0.9903
0.8647 1.9502 -1.1684 0.9903
0.6516 2.0385 -1.1721 0.9903
0.5044 2.0846 -1.1747 0.9903
0.4295 2.1037 -1.1760 0.9903
0.2009 2.1450 -1.1800 0.9902
0.1238 2.1533 -1.1813 0.9902
0.0462 2.1589 -1.1827 0.9902
-0.0315 2.1616 -1.1840 0.9902
-0.1094 2.1616 -1.1854 0.9902
-0.1873 2.1587 -1.1868 0.9902
-0.5740 2.1022 -1.1935 0.9901
-1.0177 1.9429 -1.2013 0.9900
-1.1572 1.8684 -1.2037 0.9900
-0.8632 1.1926 -0.8063 0.9933
-0.9282 1.1054 -0.7906 0.9934
-1.7774 1.1252 -1.2145 0.9903
-1.9551 0.7908 -1.2176 0.9903
-2.0085 0.6486 -1.2186 0.9903
-2.0512 0.5028 -1.2193 0.9903
-2.0684 0.4288 -1.2196 0.9903
-2.1098 0.1276 -1.2203 0.9903
-2.1131 0.0516 -1.2204 0.9903
-2.1136 -0.0245 -1.2204 0.9903
-2.0982 -0.2521 -1.2201 0.9903
-2.0875 -0.3274 -1.2199 0.9903
-1.1657 -0.3145 -0.6971 0.9944
-1.0184 -0.3145 -0.6154 0.9951
-0.9512 -0.4106 -0.5981 0.9952
-0.9464 -0.4496 -0.6050 0.9952
-0.9355 -0.5301 -0.6208 0.9950
-1.7502 -1.1655 -1.2140 0.9903
-1.6597 -1.2867 -1.2125 0.9903
-1.6112 -1.3447 -1.2116 0.9904
-1.5606 -1.4008 -1.2107 0.9904
-1.3392 -1.6051 -1.2069 0.9904
-1.1542 -1.7338 -1.2025 0.9904
-1.0688 -1.7380 -1.1780 0.9906
-0.9866 -1.7419 -1.1558 0.9908
-0.8303 -1.7485 -1.1175 0.9911
-0.7557 -1.7512 -1.1012 0.9912
-0.6120 -1.7559 -1.0736 0.9914
-0.5426 -1.7578 -1.0621 0.9915
-0.4748 -1.7607 -1.0529 0.9916
-0.3442 -1.7764 -1.0447 0.9917
-0.0854 -1.7996 -1.0402 0.9917
-0.0206 -1.7996 -1.0391 0.9917
0.0442 -1.7972 -1.0379 0.9917
0.1087 -1.7925 -1.0368 0.9917
0.1730 -1.7855 -1.0357 0.9917
0.3005 -1.7659 -1.0342 0.9918
0.5667 -1.7538 -1.0641 0.9915
0.6364 -1.7514 -1.0759 0.9914
0.7807 -1.7457 -1.1041 0.9912
1.1388 -1.6628 -1.1636 0.9907
1.2533 -1.5739 -1.1616 0.9908
1.4123 -1.4263 -1.1588 0.9908
1.4616 -1.3735 -1.1580 0.9908
1.5090 -1.3191 -1.1572 0.9908
1.6392 -1.1465 -1.1549 0.9908
1.7502 -0.9615 -1.1529 0.9908
1.8131 -0.8323 -1.1518 0.9908
1.8411 -0.7662 -1.1514 0.9908
1.4279 -0.5348 -0.8803 0.9930
1.4251 -0.4760 -0.8675 0.9931
1.4206 -0.3633 -0.8466 0.9933
1.4445 -0.3145 -0.8535 0.9932
1.7443 -0.3145 -1.0233 0.9918
1.9788 -0.2114 -1.1490 0.9909
1.9849 -0.1400 -1.1488 0.9909
1.9886 -0.0685 -1.1488 0.9909
1.9897 0.0031 -1.1488 0.9909
1.9884 0.0747 -1.1488 0.9909
1.9845 0.1463 -1.1489 0.9909
1.9693 0.2887 -1.1491 0.9908
1.9092 0.5688 -1.1502 0.9908
1.8881 0.6373 -1.1505 0.9908
1.8388 0.7721 -1.1514 0.9908
1.7801 0.9031 -1.1524 0.9908
1.7473 0.9671 -1.1530 0.9908
1.7122 1.0299 -1.1536 0.9908
1.6750 1.0915 -1.1543 0.9908
1.6356 1.1517 -1.1549 0.9908
1.5049 1.3239 -1.1572 0.9908
1.4079 1.4308 -1.1589 0.9908
1.3034 1.5308 -1.1607 0.9908
1.0127 1.7470 -1.1658 0.9907
0.9501 1.7839 -1.1669 0.9907
0.8861 1.8187 -1.1680 0.9907
0.8209 1.8512 -1.1692 0.9907
0.4787 1.9783 -1.1751 0.9906
0.4076 1.9964 -1.1764 0.9906
0.1174 2.0430 -1.1814 0.9906
0.0439 2.0481 -1.1827 0.9906
-0.1038 2.0504 -1.1853 0.9906
-0.1777 2.0476 -1.1866 0.9906
-0.2515 2.0420 -1.1879 0.9905
-0.3252 2.0339 -1.1892 0.9905
-0.3986 2.0230 -1.1905 0.9905
-0.4717 2.0095 -1.1917 0.9905
-0.8281 1.9025 -1.1979 0.9905
-0.9647 1.8417 -1.2003 0.9904
-1.0314 1.8075 -1.2015 0.9904
-1.0968 1.7709 -1.2026 0.9904
