ply
format ascii 1.0
element vertex 1588
property float32 x
property float32 y
property float32 z
property float32 I
end_header
12.0376 10.8243 -0.8210 0.9372
11.7195 11.3261 -0.8265 0.9368
10.2786 13.2811 -0.8517 0.9349
0.9333 1.2999 -0.0812 0.9936
7.5933 16.0087 -0.8986 0.9315
7.0825 16.4327 -0.9075 0.9308
6.5532 16.8464 -0.9167 0.9302
-5.9533 6.5925 -0.6513 0.9650
-7.1268 6.3579 -0.7003 0.9624
-8.9532 6.3995 -0.8069 0.9568
-18.9927 8.1384 -1.5150 0.9205
-19.3529 7.4813 -1.5213 0.9202
-19.6838 6.8065 -1.5271 0.9199
-19.9841 6.1154 -1.5324 0.9196
-20.2529 5.4096 -1.5370 0.9194
-20.6919 3.9600 -1.5447 0.9190
-20.8605 3.2198 -1.5477 0.9188
-20.9944 2.4715 -1.5500 0.9187
-21.0931 1.7171 -1.5517 0.9186
-21.1562 0.9584 -1.5528 0.9186
-21.1835 0.1973 -1.5533 0.9185
-21.1748 -0.5643 -1.5531 0.9186
-21.1303 -1.3245 -1.5524 0.9186
-18.4746 -1.8267 -1.3612 0.9282
-15.2288 -2.0609 -1.1268 0.9402
-12.3786 -2.1308 -0.9210 0.9509
-8.2543 -2.0408 -0.6234 0.9665
-16.5795 -4.7377 -1.2643 0.9332
-5.3238 -2.1648 -0.4214 0.9772
-18.8089 -8.4483 -1.5118 0.9206
-9.5280 -4.6983 -0.7789 0.9583
-8.1451 -4.7727 -0.6922 0.9628
-17.0505 -10.8325 -1.4811 0.9222
-2.5827 -2.0624 -0.2423 0.9868
-2.5073 -2.1543 -0.2424 0.9868
-13.7845 -13.6836 -1.4241 0.9251
-4.0084 -4.5965 -0.4472 0.9758
-11.9573 -14.7502 -1.3922 0.9267
-11.3294 -15.0511 -1.3813 0.9272
-10.6831 -15.3083 -1.3687 0.9279
-10.0143 -15.5096 -1.3537 0.9286
-1.2224 -2.0515 -0.1751 0.9905
-1.1391 -2.0782 -0.1738 0.9905
-1.1133 -2.2165 -0.1819 0.9901
-6.5152 -15.6913 -1.2458 0.9341
-5.8636 -15.6924 -1.2283 0.9350
-1.1751 -4.6075 -0.3486 0.9811
-3.4069 -15.6939 -1.1775 0.9376
-1.6680 -15.6920 -1.1571 0.9387
-0.5335 -15.6895 -1.1511 0.9390
0.0819 -2.1574 -0.1583 0.9914
0.1531 -2.0680 -0.1520 0.9917
0.2274 -2.0619 -0.1521 0.9917
2.2612 -15.3997 -1.1412 0.9395
0.7817 -3.5336 -0.2653 0.9856
3.8224 -14.7441 -1.1168 0.9407
4.3163 -14.4845 -1.1082 0.9412
5.2660 -13.9255 -1.0916 0.9420
5.7212 -13.6272 -1.0837 0.9424
6.5918 -12.9961 -1.0685 0.9432
4.3761 -4.6315 -0.4672 0.9748
9.8326 -9.6841 -1.0119 0.9462
10.1233 -9.2776 -1.0068 0.9464
5.8281 -4.6166 -0.5452 0.9706
2.9143 -2.1426 -0.2652 0.9856
3.0176 -2.0557 -0.2677 0.9855
0.8708 -0.5056 -0.0738 0.9960
5.3427 -2.1480 -0.4222 0.9772
5.7798 -2.0857 -0.4505 0.9757
9.6429 -3.0927 -0.7425 0.9602
10.0757 -2.0686 -0.7542 0.9596
11.3144 -1.9018 -0.8412 0.9550
13.0351 -0.2960 -0.9560 0.9491
13.0368 0.1728 -0.9560 0.9491
12.9996 1.1098 -0.9566 0.9490
12.8414 2.5101 -0.9594 0.9489
12.7615 2.9744 -0.9608 0.9488
12.6678 3.4371 -0.9624 0.9487
12.5605 3.8978 -0.9643 0.9486
12.3047 4.8124 -0.9688 0.9484
11.9939 5.7159 -0.9742 0.9481
11.6279 6.6059 -0.9806 0.9478
10.9752 7.9103 -0.9920 0.9472
9.7099 8.7312 -0.9575 0.9490
9.0372 8.7339 -0.9215 0.9508
8.4190 8.7432 -0.8900 0.9525
0.9332 1.2998 -0.1173 0.9936
0.8616 1.2960 -0.1141 0.9938
0.8040 1.3091 -0.1126 0.9939
0.7680 1.3577 -0.1144 0.9938
5.0868 11.8022 -0.9423 0.9498
4.6932 12.0648 -0.9492 0.9494
-5.8211 6.4462 -0.8339 0.9657
-6.2008 6.3891 -0.8548 0.9649
-7.7560 6.4338 -0.9675 0.9603
-8.3489 6.4333 -1.0119 0.9585
-8.9916 6.4269 -1.0611 0.9566
-12.7652 7.1857 -1.4063 0.9428
-13.3436 6.2948 -1.4164 0.9424
-13.8467 5.3527 -1.4252 0.9421
-14.2689 4.3665 -1.4326 0.9418
-14.8523 2.2924 -1.4428 0.9414
-15.0664 0.1403 -1.4465 0.9413
-15.0312 -0.9422 -1.4459 0.9413
-13.0781 -1.7698 -1.2670 0.9483
-12.3739 -2.1300 -1.2054 0.9508
-12.8823 -2.6976 -1.2636 0.9485
-8.2522 -2.0403 -0.8161 0.9664
-8.9140 -3.2564 -0.9111 0.9626
-11.5974 -8.5970 -1.3860 0.9436
-10.4514 -9.6542 -1.3660 0.9444
-10.0452 -9.9717 -1.3589 0.9447
-4.0078 -4.5958 -0.5854 0.9758
-7.8743 -11.2835 -1.3210 0.9462
-1.1390 -2.0778 -0.2275 0.9905
-1.1074 -2.2048 -0.2369 0.9901
-5.5541 -12.1262 -1.2805 0.9478
-4.1347 -12.4088 -1.2557 0.9488
-3.6617 -12.4669 -1.2474 0.9491
-2.7202 -12.5305 -1.2310 0.9498
-2.2530 -12.5366 -1.2229 0.9501
-1.7889 -12.5260 -1.2148 0.9504
-1.3286 -12.4989 -1.2067 0.9507
-0.8726 -12.4559 -1.1988 0.9511
-0.4215 -12.3973 -1.1909 0.9514
0.0243 -12.3234 -1.1831 0.9517
0.2274 -2.0616 -0.1991 0.9917
2.1574 -11.7390 -1.1459 0.9532
1.5617 -4.6261 -0.4688 0.9806
5.1527 -10.1589 -1.0936 0.9553
5.4853 -9.9142 -1.0878 0.9555
5.8080 -9.6603 -1.0822 0.9557
1.5041 -2.1373 -0.2509 0.9896
1.5698 -2.0684 -0.2493 0.9896
7.2667 -8.2669 -1.0567 0.9567
4.3768 -4.6323 -0.6118 0.9747
7.7759 -7.6585 -1.0478 0.9571
8.0142 -7.3447 -1.0436 0.9573
8.2416 -7.0250 -1.0397 0.9574
0.7892 -0.5376 -0.0917 0.9962
0.8097 -0.5100 -0.0919 0.9962
0.9563 -0.5103 -0.1041 0.9957
4.3399 -2.1188 -0.4637 0.9808
8.5896 -3.4534 -0.8888 0.9635
5.7811 -2.0861 -0.5900 0.9756
8.9963 -1.8469 -0.8817 0.9638
10.3918 -0.9862 -1.0021 0.9589
10.4305 0.1382 -1.0015 0.9589
10.4206 0.5132 -1.0016 0.9589
10.3665 1.2618 -1.0026 0.9589
10.3224 1.6349 -1.0034 0.9589
10.2669 2.0068 -1.0043 0.9588
10.1999 2.3774 -1.0055 0.9588
10.1216 2.7462 -1.0069 0.9587
10.0319 3.1131 -1.0084 0.9587
9.9309 3.4779 -1.0102 0.9586
9.8185 3.8400 -1.0121 0.9585
9.6947 4.1995 -1.0143 0.9584
9.4133 4.9088 -1.0192 0.9582
8.9067 5.9449 -1.0281 0.9579
8.5131 6.6134 -1.0349 0.9576
8.0751 7.2612 -1.0426 0.9573
6.7455 8.7160 -1.0581 0.9567
0.9332 1.2998 -0.1536 0.9936
0.8616 1.2959 -0.1494 0.9938
0.8043 1.3095 -0.1475 0.9938
0.7327 1.4113 -0.1527 0.9936
4.2701 9.0024 -0.9566 0.9608
3.9656 9.2009 -0.9619 0.9605
3.6529 9.3905 -0.9673 0.9603
-7.4071 8.2025 -1.3128 0.9565
-6.2532 6.4431 -1.0665 0.9645
-6.6828 6.4078 -1.0998 0.9634
-8.3506 7.4497 -1.3293 0.9559
-9.2064 6.5805 -1.3442 0.9554
-9.4692 6.2666 -1.3488 0.9553
-10.1819 5.2588 -1.3613 0.9549
-10.3923 4.9025 -1.3649 0.9548
-11.0850 3.3922 -1.3770 0.9544
-11.2188 2.9966 -1.3794 0.9543
-11.4365 2.1887 -1.3832 0.9542
-11.5199 1.7781 -1.3846 0.9541
-11.5861 1.3639 -1.3858 0.9541
-11.6750 -0.3111 -1.3873 0.9540
-11.5563 -1.5639 -1.3852 0.9541
-10.2116 -1.7578 -1.2308 0.9591
-9.9967 -2.0934 -1.2132 0.9597
-8.2501 -2.0398 -1.0095 0.9663
-5.3183 -2.1626 -0.6820 0.9771
-4.7651 -2.1403 -0.6205 0.9792
-9.0334 -4.4544 -1.1964 0.9602
-8.1352 -4.7669 -1.1200 0.9627
-6.7374 -4.6285 -0.9710 0.9676
-2.5818 -2.0617 -0.3925 0.9868
-2.5054 -2.1527 -0.3924 0.9868
-7.8944 -7.8366 -1.3213 0.9562
-4.0071 -4.5951 -0.7242 0.9757
-5.8727 -9.0953 -1.2860 0.9573
-1.2230 -2.0525 -0.2838 0.9904
-1.1388 -2.0775 -0.2814 0.9905
-4.4195 -9.6490 -1.2607 0.9582
-3.6766 -9.8394 -1.2477 0.9586
-2.9291 -9.9727 -1.2347 0.9590
-1.4386 -10.0727 -1.2086 0.9598
-0.7036 -10.0423 -1.1958 0.9603
-0.3403 -10.0078 -1.1895 0.9605
0.0820 -2.1612 -0.2569 0.9913
0.1531 -2.0686 -0.2464 0.9917
0.2273 -2.0612 -0.2463 0.9917
0.3176 -2.1633 -0.2597 0.9912
1.7543 -9.5459 -1.1529 0.9617
0.7812 -3.5317 -0.4297 0.9855
2.4114 -9.3017 -1.1414 0.9620
3.3501 -8.8590 -1.1251 0.9626
3.6493 -8.6923 -1.1198 0.9627
4.5032 -8.1391 -1.1049 0.9632
1.5047 -2.1382 -0.3106 0.9895
1.5700 -2.0688 -0.3085 0.9896
4.3776 -4.6330 -0.7571 0.9747
6.4259 -6.3289 -1.0714 0.9643
6.6275 -6.0738 -1.0678 0.9644
0.7281 -0.6207 -0.1136 0.9962
0.7486 -0.5930 -0.1134 0.9962
7.1399 -2.8706 -0.9141 0.9695
5.7824 -2.0866 -0.7302 0.9755
8.5821 -1.4425 -1.0337 0.9656
8.6225 -1.1323 -1.0330 0.9656
8.6531 -0.8212 -1.0325 0.9656
8.6740 -0.5094 -1.0321 0.9656
8.6779 0.4274 -1.0321 0.9656
8.6596 0.7393 -1.0324 0.9656
8.5936 1.3611 -1.0335 0.9656
8.5460 1.6705 -1.0344 0.9655
8.3448 2.5896 -1.0379 0.9654
8.1621 3.1922 -1.0411 0.9653
1.7666 0.8419 -0.2325 0.9921
1.7169 0.8953 -0.2300 0.9922
1.6535 0.9394 -0.2259 0.9924
1.5741 0.9707 -0.2197 0.9926
1.4739 0.9837 -0.2105 0.9929
6.6790 6.0058 -1.0669 0.9645
6.4798 6.2623 -1.0704 0.9644
6.2717 6.5133 -1.0741 0.9642
1.0741 1.1989 -0.1912 0.9935
0.8884 1.2374 -0.1809 0.9939
0.7344 1.4146 -0.1893 0.9936
4.0066 8.4470 -1.1105 0.9630
3.7088 8.6050 -1.1131 0.9630
-6.1020 6.7573 -1.2900 0.9639
-6.3634 6.5567 -1.2946 0.9638
-6.6176 6.3454 -1.2990 0.9636
-7.1024 5.8916 -1.3075 0.9634
-7.5525 5.3983 -1.3154 0.9632
-7.9641 4.8681 -1.3225 0.9630
-8.1544 4.5902 -1.3259 0.9629
-8.6582 3.7101 -1.3347 0.9627
-9.1603 2.4467 -1.3434 0.9624
-9.3334 1.7862 -1.3464 0.9623
-9.3997 1.4508 -1.3476 0.9623
-9.4522 1.1127 -1.3485 0.9623
-9.4908 0.7726 -1.3492 0.9623
-9.5155 0.4311 -1.3496 0.9622
-9.5053 -0.5958 -1.3494 0.9623
-9.4739 -0.9367 -1.3489 0.9623
-9.4286 -1.2760 -1.3481 0.9623
-9.3694 -1.6128 -1.3471 0.9623
-8.3814 -1.7551 -1.2133 0.9660
-8.0834 -1.9986 -1.1798 0.9669
-7.9960 -2.2849 -1.1783 0.9670
-5.3156 -2.1615 -0.8130 0.9771
-7.5341 -3.3841 -1.1702 0.9672
-7.3918 -3.6450 -1.1678 0.9673
-7.0774 -4.1471 -1.1623 0.9674
-6.9059 -4.3875 -1.1593 0.9675
-2.5813 -2.0613 -0.4681 0.9867
-2.5044 -2.1518 -0.4678 0.9867
-5.7025 -7.0345 -1.2831 0.9641
-5.4254 -7.2076 -1.2782 0.9642
-5.1429 -7.3695 -1.2733 0.9643
-4.8554 -7.5198 -1.2683 0.9645
-1.2233 -2.0530 -0.3386 0.9904
-1.1386 -2.0772 -0.3356 0.9905
-1.0957 -2.1815 -0.3459 0.9902
-3.3619 -8.0969 -1.2422 0.9652
-0.2850 -8.3833 -1.1885 0.9667
0.0164 -8.3510 -1.1832 0.9668
0.0821 -2.1631 -0.3067 0.9913
0.1531 -2.0689 -0.2939 0.9917
0.3172 -2.1601 -0.3093 0.9912
2.0333 -7.8432 -1.1480 0.9678
2.3044 -7.7331 -1.1433 0.9679
2.8311 -7.4868 -1.1341 0.9682
3.3357 -7.2076 -1.1253 0.9684
3.5790 -7.0563 -1.1211 0.9685
4.0471 -6.7315 -1.1129 0.9688
1.5054 -2.1392 -0.3706 0.9895
1.5703 -2.0691 -0.3680 0.9896
4.9034 -6.0003 -1.0979 0.9692
4.3783 -4.6338 -0.9033 0.9746
0.7491 -0.5934 -0.1354 0.9961
0.7693 -0.5656 -0.1353 0.9961
0.7897 -0.5380 -0.1354 0.9961
4.3431 -2.1204 -0.6848 0.9807
6.0213 -2.6762 -0.9336 0.9737
6.3087 -1.7759 -0.9286 0.9739
7.1449 -1.7367 -1.0418 0.9707
1.4944 -0.2512 -0.2147 0.9939
1.4712 -0.1932 -0.2102 0.9940
1.4426 -0.1369 -0.2053 0.9942
7.4363 0.0985 -1.0537 0.9704
7.4128 0.6328 -1.0541 0.9704
7.3883 0.8993 -1.0546 0.9704
7.3552 1.1649 -1.0551 0.9704
7.2635 1.6930 -1.0567 0.9703
7.2049 1.9549 -1.0578 0.9703
7.1379 2.2151 -1.0589 0.9703
6.8863 2.9830 -1.0633 0.9701
6.6771 3.4820 -1.0670 0.9700
6.5601 3.7268 -1.0690 0.9700
6.4350 3.9684 -1.0712 0.9699
6.3018 4.2062 -1.0735 0.9699
6.0116 4.6701 -1.0786 0.9697
5.5176 5.3324 -1.0872 0.9695
4.5450 6.3305 -1.1042 0.9690
4.3292 6.5119 -1.1080 0.9689
3.8776 6.8546 -1.1158 0.9687
3.6420 7.0153 -1.1200 0.9686
3.4002 7.1686 -1.1242 0.9685
2.8988 7.4519 -1.1329 0.9682
-5.4021 5.5662 -1.2778 0.9690
-5.8213 5.1932 -1.2851 0.9689
-6.0204 4.9941 -1.2886 0.9688
-6.2122 4.7868 -1.2920 0.9687
-6.5718 4.3491 -1.2982 0.9686
-6.7390 4.1193 -1.3012 0.9685
-7.0465 3.6394 -1.3065 0.9684
-7.3161 3.1349 -1.3112 0.9682
-7.5454 2.6091 -1.3152 0.9682
-7.8097 1.7879 -1.3198 0.9680
-7.8758 1.5073 -1.3210 0.9680
-7.9306 1.2241 -1.3220 0.9680
-7.9741 0.9387 -1.3227 0.9680
-8.0353 0.0748 -1.3238 0.9679
-8.0325 -0.2141 -1.3237 0.9680
-7.9921 -0.7902 -1.3230 0.9680
-7.9056 -1.3609 -1.3215 0.9680
-6.7503 -1.9289 -1.1566 0.9719
-6.6684 -2.1677 -1.1551 0.9720
-6.5770 -2.4027 -1.1535 0.9720
-5.3134 -2.1606 -0.9449 0.9770
-3.9258 -2.1146 -0.7346 0.9821
-5.8447 -3.7133 -1.1407 0.9723
-5.5366 -4.1042 -1.1354 0.9724
-2.5809 -2.0610 -0.5441 0.9867
-2.3036 -2.1279 -0.5166 0.9874
-4.6492 -4.9595 -1.1199 0.9728
-4.0063 -4.5941 -1.0042 0.9756
-4.3768 -6.2718 -1.2599 0.9695
-4.1346 -6.4035 -1.2557 0.9696
-1.2236 -2.0536 -0.3938 0.9904
-1.1384 -2.0769 -0.3902 0.9904
-3.1298 -6.8332 -1.2382 0.9700
-1.1744 -4.6047 -0.7829 0.9809
-1.0312 -7.2203 -1.2015 0.9709
-0.7680 -7.2249 -1.1969 0.9710
-0.5058 -7.2202 -1.1924 0.9711
-0.2450 -7.2061 -1.1878 0.9712
0.0141 -7.1828 -1.1833 0.9713
0.0821 -2.1650 -0.3569 0.9913
0.1532 -2.0693 -0.3418 0.9916
0.2272 -2.0605 -0.3415 0.9916
1.7562 -6.7742 -1.1529 0.9720
1.5624 -4.6282 -0.8047 0.9804
2.4493 -6.4771 -1.1408 0.9723
2.6715 -6.3632 -1.1369 0.9724
2.8888 -6.2421 -1.1331 0.9725
3.3083 -5.9795 -1.1258 0.9727
3.0066 -4.6166 -0.9076 0.9779
1.5705 -2.0694 -0.4280 0.9895
3.7392 -4.5756 -0.9735 0.9763
3.8906 -4.4262 -0.9708 0.9764
4.0366 -4.2722 -0.9683 0.9765
4.1770 -4.1139 -0.9658 0.9765
0.7509 -0.5948 -0.1578 0.9961
0.7704 -0.5664 -0.1575 0.9961
0.7900 -0.5382 -0.1575 0.9961
0.8706 -0.5055 -0.1658 0.9959
0.9383 -0.5006 -0.1752 0.9957
0.9542 -0.4658 -0.1749 0.9957
0.9689 -0.4306 -0.1747 0.9957
1.0058 -0.4044 -0.1786 0.9956
5.4879 -1.7601 -0.9494 0.9769
6.1712 -1.7372 -1.0562 0.9743
6.3293 -1.5385 -1.0731 0.9739
6.3757 -1.3089 -1.0722 0.9740
6.4697 -0.6140 -1.0706 0.9740
6.4859 -0.3809 -1.0703 0.9740
6.4945 -0.1475 -1.0702 0.9740
6.4955 0.0861 -1.0702 0.9740
6.4889 0.3196 -1.0703 0.9740
6.2309 1.9336 -1.0748 0.9739
6.0898 2.3818 -1.0772 0.9738
6.0082 2.6026 -1.0787 0.9738
5.7197 3.2494 -1.0837 0.9737
5.4915 3.6654 -1.0877 0.9736
4.9520 4.4529 -1.0971 0.9734
4.8003 4.6392 -1.0997 0.9733
4.6420 4.8208 -1.1025 0.9732
4.4774 4.9976 -1.1054 0.9732
4.1293 5.3355 -1.1115 0.9730
3.9461 5.4963 -1.1147 0.9729
3.5623 5.8002 -1.1213 0.9728
3.1562 6.0794 -1.1284 0.9726
2.7291 6.3320 -1.1359 0.9724
-5.2194 4.3296 -1.2746 0.9728
-5.9702 3.3607 -1.2877 0.9725
-6.0977 3.1493 -1.2900 0.9725
-6.2170 2.9328 -1.2920 0.9724
-6.3278 2.7115 -1.2940 0.9724
-6.4301 2.4857 -1.2958 0.9723
-6.6830 1.7850 -1.3002 0.9722
-6.8051 1.3024 -1.3023 0.9722
-6.8518 1.0576 -1.3031 0.9722
-6.9410 0.0647 -1.3047 0.9721
-6.9386 -0.1849 -1.3046 0.9721
-6.9263 -0.4341 -1.3044 0.9721
-6.8722 -0.9300 -1.3035 0.9722
-6.7792 -1.4196 -1.3019 0.9722
-6.7183 -1.6610 -1.3008 0.9722
-6.1267 -1.7507 -1.1977 0.9744
-5.6868 -2.0775 -1.1380 0.9757
-5.3114 -2.1598 -1.0777 0.9769
-5.5077 -2.4739 -1.1349 0.9757
-5.4068 -2.6661 -1.1331 0.9758
-3.9243 -2.1138 -0.8378 0.9820
-4.9325 -3.3886 -1.1248 0.9759
-4.7974 -3.5563 -1.1225 0.9760
-2.0663 -2.2042 -0.5679 0.9878
-3.8682 -4.4358 -1.1062 0.9763
-3.6962 -4.5596 -1.1032 0.9764
-3.5201 -4.6764 -1.1002 0.9765
-3.3401 -4.7862 -1.0970 0.9765
-3.1567 -4.8889 -1.0938 0.9766
-1.1383 -2.0766 -0.4451 0.9904
-1.0881 -2.1664 -0.4557 0.9902
-0.9978 -2.1785 -0.4504 0.9903
-2.0507 -6.1545 -1.2193 0.9739
-1.8222 -6.2038 -1.2153 0.9740
-1.1742 -4.6040 -0.8931 0.9808
-0.9021 -6.3164 -1.1993 0.9744
0.0124 -6.2955 -1.1833 0.9747
0.0822 -2.1669 -0.4076 0.9912
0.1532 -2.0696 -0.3901 0.9916
0.3162 -2.1536 -0.4091 0.9912
1.1193 -6.0907 -1.1640 0.9751
1.5442 -5.9564 -1.1566 0.9753
1.5375 -5.1593 -1.0119 0.9783
2.2339 -4.8270 -0.9997 0.9786
2.8704 -4.4074 -0.9886 0.9788
1.5067 -2.1410 -0.4921 0.9894
1.5708 -2.0697 -0.4884 0.9895
3.5678 -3.7760 -0.9765 0.9791
3.6930 -3.6372 -0.9743 0.9791
0.7331 -0.6249 -0.1811 0.9961
0.7723 -0.5678 -0.1802 0.9961
0.8111 -0.5108 -0.1802 0.9961
0.8676 -0.4629 -0.1848 0.9960
0.8986 -0.4387 -0.1879 0.9959
4.8685 -1.7568 -0.9729 0.9792
5.5638 -1.5662 -1.0864 0.9767
5.6121 -1.3641 -1.0856 0.9768
5.6537 -1.1607 -1.0848 0.9768
5.6886 -0.9562 -1.0842 0.9768
5.7167 -0.7507 -1.0837 0.9768
5.7526 -0.3378 -1.0831 0.9768
5.7603 -0.1308 -1.0830 0.9768
5.7612 0.0763 -1.0830 0.9768
5.7552 0.2834 -1.0831 0.9768
5.7425 0.4902 -1.0833 0.9768
5.5239 1.7142 -1.0871 0.9767
5.4639 1.9135 -1.0882 0.9767
5.3242 2.3063 -1.0906 0.9767
5.2445 2.4994 -1.0920 0.9766
5.1584 2.6900 -1.0935 0.9766
1.8392 1.3256 -0.4261 0.9908
4.5092 3.7706 -1.1048 0.9764
4.2443 4.1019 -1.1094 0.9763
4.1032 4.2613 -1.1119 0.9762
3.8042 4.5664 -1.1171 0.9761
3.3156 4.9872 -1.1257 0.9759
3.1426 5.1169 -1.1287 0.9759
2.9647 5.2409 -1.1318 0.9758
2.7822 5.3591 -1.1350 0.9757
2.5952 5.4714 -1.1382 0.9757
2.4039 5.5775 -1.1416 0.9756
-3.9724 4.3989 -1.2529 0.9761
-4.6019 3.8173 -1.2639 0.9759
-4.8831 3.4903 -1.2688 0.9758
-5.2575 2.9595 -1.2753 0.9756
-5.3686 2.7728 -1.2772 0.9756
-5.4726 2.5817 -1.2791 0.9756
-5.6582 2.1873 -1.2823 0.9755
-5.7396 1.9847 -1.2837 0.9755
-5.8130 1.7789 -1.2850 0.9755
-5.8784 1.5701 -1.2861 0.9754
-5.9357 1.3588 -1.2871 0.9754
-6.0574 0.7131 -1.2893 0.9754
-6.0962 0.2762 -1.2899 0.9754
-6.1027 0.0568 -1.2901 0.9754
-6.0708 -0.6002 -1.2895 0.9754
-6.0067 -1.0340 -1.2884 0.9754
-5.9621 -1.2485 -1.2876 0.9754
-5.8479 -1.6711 -1.2856 0.9754
-5.3795 -1.7487 -1.1957 0.9771
-4.9291 -2.0043 -1.1248 0.9785
-4.8478 -2.1775 -1.1233 0.9785
-3.9228 -2.1130 -0.9418 0.9819
-4.3461 -2.9858 -1.1146 0.9787
-4.2282 -3.1343 -1.1125 0.9787
-2.5800 -2.0602 -0.6979 0.9866
-2.5015 -2.1493 -0.6971 0.9866
-3.8428 -3.5497 -1.1058 0.9788
-3.7046 -3.6775 -1.1034 0.9789
-3.2642 -4.0267 -1.0957 0.9790
-1.0876 -2.1653 -0.5122 0.9901
-2.1192 -4.6268 -1.0757 0.9794
-0.8926 -2.1498 -0.4920 0.9905
-1.7712 -4.7402 -1.0696 0.9795
-1.5951 -4.7870 -1.0666 0.9796
-1.1741 -4.6033 -1.0042 0.9808
-0.8821 -4.9082 -1.0541 0.9798
-0.7030 -4.9221 -1.0510 0.9799
-0.5240 -4.9295 -1.0479 0.9799
-0.1504 -2.1471 -0.4550 0.9912
0.1532 -2.0699 -0.4387 0.9916
0.8752 -4.7620 -1.0235 0.9804
0.7804 -3.5277 -0.7637 0.9853
1.3710 -4.6009 -1.0148 0.9806
1.5313 -4.5361 -1.0120 0.9806
1.6888 -4.4659 -1.0092 0.9807
1.0155 -2.1944 -0.5111 0.9902
2.2875 -4.1345 -0.9988 0.9809
2.4287 -4.0396 -0.9963 0.9809
1.5074 -2.1420 -0.5537 0.9893
1.5710 -2.0701 -0.5493 0.9894
2.9551 -3.6161 -0.9871 0.9811
3.0766 -3.5000 -0.9850 0.9811
3.1937 -3.3801 -0.9830 0.9812
3.3066 -3.2566 -0.9810 0.9812
0.7346 -0.6261 -0.2040 0.9961
0.7538 -0.5971 -0.2033 0.9961
0.7730 -0.5683 -0.2028 0.9961
0.7922 -0.5397 -0.2026 0.9961
3.9663 -2.3032 -0.9695 0.9814
4.1108 -2.0070 -0.9670 0.9815
4.1754 -1.8557 -0.9658 0.9815
4.3640 -1.7545 -0.9942 0.9810
5.0365 -1.2242 -1.0956 0.9790
5.1058 -0.8582 -1.0944 0.9791
5.1638 -0.3033 -1.0934 0.9791
5.1708 -0.1174 -1.0933 0.9791
5.1716 0.0685 -1.0933 0.9791
5.1662 0.2544 -1.0934 0.9791
5.1547 0.4401 -1.0936 0.9791
5.1370 0.6253 -1.0939 0.9791
5.1131 0.8098 -1.0943 0.9791
5.0470 1.1763 -1.0954 0.9790
4.9566 1.5381 -1.0970 0.9790
4.9023 1.7168 -1.0980 0.9790
4.7759 2.0688 -1.1002 0.9789
4.7038 2.2417 -1.1014 0.9789
1.6936 1.1304 -0.4304 0.9917
1.6463 1.2790 -0.4407 0.9915
4.0394 3.3777 -1.1130 0.9787
3.9225 3.5272 -1.1151 0.9787
3.6733 3.8147 -1.1194 0.9786
3.5410 3.9524 -1.1217 0.9785
3.4039 4.0859 -1.1241 0.9785
2.9643 4.4588 -1.1318 0.9783
2.8089 4.5734 -1.1345 0.9783
2.6491 4.6829 -1.1373 0.9782
-3.5518 3.9332 -1.2455 0.9785
-4.1109 3.4100 -1.2553 0.9783
-4.5874 2.8041 -1.2636 0.9782
-4.6920 2.6412 -1.2654 0.9781
-4.8824 2.3033 -1.2688 0.9781
-4.9679 2.1287 -1.2702 0.9780
-5.2413 1.4000 -1.2750 0.9780
-5.2919 1.2115 -1.2759 0.9779
-5.3995 0.6356 -1.2778 0.9779
-5.4204 0.4413 -1.2781 0.9779
-5.4283 -0.3403 -1.2783 0.9779
-5.3868 -0.7290 -1.2776 0.9779
-5.3153 -1.1131 -1.2763 0.9779
-5.2684 -1.3026 -1.2755 0.9779
-5.2143 -1.4900 -1.2745 0.9780
-4.3966 -1.7878 -1.1155 0.9807
-4.2468 -2.0941 -1.1129 0.9807
-3.9213 -2.1122 -1.0468 0.9819
-4.0743 -2.3874 -1.1098 0.9808
-3.9800 -2.5286 -1.1082 0.9808
-3.8804 -2.6658 -1.1065 0.9808
-3.7758 -2.7990 -1.1046 0.9809
-2.5005 -2.1484 -0.7748 0.9865
-3.3112 -3.2869 -1.0965 0.9810
-3.1844 -3.3970 -1.0943 0.9810
-3.0539 -3.5019 -1.0920 0.9811
-2.9198 -3.6017 -1.0897 0.9811
-2.6416 -3.7853 -1.0848 0.9812
-2.4980 -3.8688 -1.0823 0.9813
-1.2246 -2.0551 -0.5623 0.9902
-1.1379 -2.0759 -0.5564 0.9903
-1.8992 -4.1465 -1.0719 0.9814
-1.7445 -4.2015 -1.0692 0.9815
-1.5883 -4.2506 -1.0665 0.9815
-1.2721 -4.3312 -1.0609 0.9816
-1.1127 -4.3627 -1.0582 0.9817
-0.9526 -4.3882 -1.0554 0.9817
-0.7921 -4.4079 -1.0526 0.9818
-0.4709 -4.4297 -1.0469 0.9819
-0.1506 -4.4283 -1.0414 0.9820
0.7883 -4.2893 -1.0250 0.9822
0.7802 -3.5267 -0.8489 0.9853
1.0888 -4.2000 -1.0197 0.9823
1.2360 -4.1476 -1.0172 0.9824
1.6631 -3.9612 -1.0097 0.9825
1.8001 -3.8896 -1.0073 0.9825
1.9343 -3.8135 -1.0050 0.9826
2.3180 -3.5592 -0.9983 0.9827
1.5713 -2.0704 -0.6109 0.9894
2.8880 -3.0566 -0.9883 0.9829
2.9906 -2.9455 -0.9865 0.9829
3.0892 -2.8311 -0.9848 0.9829
3.2739 -2.5933 -0.9816 0.9830
2.9221 -2.1483 -0.8524 0.9852
3.0215 -2.0583 -0.8592 0.9851
3.5187 -2.2161 -0.9773 0.9831
3.6596 -1.9526 -0.9749 0.9831
3.9425 -1.7522 -1.0140 0.9824
1.7303 -0.4871 -0.4225 0.9926
1.7389 -0.4227 -0.4206 0.9927
1.8711 -0.3145 -0.4459 0.9922
2.0249 -0.2659 -0.4800 0.9916
4.6865 -0.1064 -1.1017 0.9809
4.6873 0.0621 -1.1017 0.9809
4.6824 0.2306 -1.1018 0.9809
4.6718 0.3988 -1.1020 0.9809
4.6065 0.9004 -1.1031 0.9809
4.5350 1.2305 -1.1044 0.9809
4.4910 1.3937 -1.1051 0.9809
4.3261 1.8739 -1.1080 0.9808
4.2603 2.0303 -1.1092 0.9808
2.0939 1.0919 -0.5550 0.9903
1.9457 1.1054 -0.5259 0.9908
1.7925 1.1054 -0.4949 0.9914
1.6561 1.1054 -0.4680 0.9919
3.4375 3.3221 -1.1235 0.9805
3.3218 3.4498 -1.1255 0.9805
3.0770 3.6935 -1.1298 0.9804
2.6779 4.0280 -1.1368 0.9803
2.3920 4.2285 -1.1418 0.9802
2.2435 4.3215 -1.1444 0.9802
1.9363 4.4925 -1.1497 0.9801
-1.2152 1.3457 -0.4695 0.9925
-1.2822 1.3212 -0.4767 0.9924
-1.4707 1.3120 -0.5103 0.9919
-3.8251 2.9474 -1.2503 0.9802
-4.0390 2.6729 -1.2540 0.9802
-4.1382 2.5295 -1.2558 0.9802
-4.4026 2.0769 -1.2604 0.9801
-4.4791 1.9193 -1.2617 0.9801
-4.5497 1.7588 -1.2629 0.9800
-4.7239 1.2618 -1.2660 0.9800
-4.7692 1.0918 -1.2668 0.9800
-4.8079 0.9202 -1.2675 0.9800
-4.8961 0.2218 -1.2690 0.9800
-4.8996 -0.1306 -1.2691 0.9800
-4.8760 -0.4821 -1.2686 0.9800
-4.8254 -0.8306 -1.2678 0.9800
-4.7901 -1.0031 -1.2671 0.9800
-4.7482 -1.1740 -1.2664 0.9800
-4.6998 -1.3430 -1.2656 0.9800
-4.5838 -1.6745 -1.2635 0.9800
-3.7549 -2.0225 -1.1043 0.9825
-3.6751 -2.1535 -1.1029 0.9826
-3.5012 -2.4053 -1.0998 0.9826
-3.4074 -2.5259 -1.0982 0.9826
-2.4995 -2.1476 -0.8532 0.9865
-3.1005 -2.8640 -1.0928 0.9827
-2.9902 -2.9684 -1.0909 0.9827
-2.3880 -3.4219 -1.0804 0.9829
-1.0865 -2.1631 -0.6267 0.9900
-1.7189 -3.7528 -1.0687 0.9831
-1.5792 -3.8034 -1.0663 0.9831
-1.2958 -3.8890 -1.0613 0.9832
-1.1525 -3.9238 -1.0588 0.9832
-0.7182 -3.9962 -1.0513 0.9834
-0.4271 -4.0180 -1.0462 0.9834
-0.2817 -4.0209 -1.0436 0.9835
-0.1366 -4.0187 -1.0411 0.9835
0.0079 -4.0113 -1.0386 0.9836
0.1517 -3.9987 -1.0361 0.9836
0.7164 -3.8982 -1.0262 0.9838
0.7799 -3.5257 -0.9349 0.9852
0.9900 -3.8188 -1.0214 0.9838
1.2561 -3.7208 -1.0168 0.9839
1.3860 -3.6651 -1.0145 0.9839
1.6386 -3.5406 -1.0101 0.9840
1.7610 -3.4720 -1.0080 0.9840
2.1117 -3.2424 -1.0019 0.9841
1.5088 -2.1439 -0.6788 0.9892
1.5715 -2.0708 -0.6731 0.9893
2.7273 -2.6861 -0.9911 0.9843
2.9042 -2.4755 -0.9880 0.9844
2.9233 -2.1492 -0.9394 0.9851
3.0221 -2.0587 -0.9468 0.9850
3.2782 -1.9036 -0.9815 0.9845
3.3408 -1.7825 -0.9804 0.9845
3.5842 -1.7499 -1.0327 0.9837
3.9915 -1.6048 -1.1139 0.9824
4.0433 -1.4590 -1.1130 0.9824
1.6321 -0.5234 -0.4438 0.9929
1.6419 -0.4622 -0.4416 0.9930
1.6505 -0.4012 -0.4398 0.9930
4.2644 -0.4047 -1.1091 0.9825
4.2755 -0.2511 -1.1089 0.9825
4.2813 -0.0972 -1.1088 0.9825
4.2820 0.0567 -1.1088 0.9825
4.2775 0.2107 -1.1089 0.9825
4.2678 0.3643 -1.1090 0.9825
4.2530 0.5176 -1.1093 0.9825
4.2329 0.6704 -1.1096 0.9824
4.2078 0.8225 -1.1101 0.9824
4.1775 0.9737 -1.1106 0.9824
4.0056 1.5666 -1.1136 0.9824
2.1348 1.1132 -0.6234 0.9901
1.7925 1.1054 -0.5453 0.9913
1.5272 1.2770 -0.5155 0.9918
3.2367 2.9105 -1.1270 0.9822
3.0290 3.1456 -1.1307 0.9821
2.9189 3.2580 -1.1326 0.9821
2.8048 3.3667 -1.1346 0.9821
2.4397 3.6696 -1.1409 0.9820
2.0427 3.9347 -1.1479 0.9818
1.9040 4.0140 -1.1503 0.9818
1.7622 4.0887 -1.1528 0.9818
-1.1426 1.2653 -0.4826 0.9929
-1.1735 1.2092 -0.4770 0.9930
-1.2028 1.1533 -0.4717 0.9931
-3.6754 2.4323 -1.2477 0.9818
-3.8500 2.1672 -1.2507 0.9818
-3.9298 2.0297 -1.2521 0.9818
-4.1374 1.5994 -1.2557 0.9817
-4.1956 1.4508 -1.2568 0.9817
-4.3359 0.9926 -1.2592 0.9817
-4.4229 0.5207 -1.2607 0.9817
-4.4398 0.3614 -1.2610 0.9817
-4.4506 0.2016 -1.2612 0.9816
-4.4537 -0.1187 -1.2613 0.9816
-4.4324 -0.4383 -1.2609 0.9817
-4.4126 -0.5971 -1.2606 0.9817
-4.3867 -0.7551 -1.2601 0.9817
-4.3548 -0.9119 -1.2595 0.9817
-4.3169 -1.0673 -1.2589 0.9817
-4.2731 -1.2211 -1.2581 0.9817
-4.2236 -1.3729 -1.2573 0.9817
-4.1683 -1.5227 -1.2563 0.9817
-4.1074 -1.6702 -1.2552 0.9817
-3.8791 -1.7423 -1.2038 0.9825
-3.5613 -1.7561 -1.1241 0.9836
-3.4158 -1.8399 -1.0984 0.9840
-3.2671 -2.0756 -1.0958 0.9840
-2.4985 -2.1467 -0.9325 0.9864
-2.8231 -2.6078 -1.0880 0.9841
-2.6199 -2.7948 -1.0845 0.9842
-2.2916 -3.0444 -1.0787 0.9843
-2.1766 -3.1190 -1.0767 0.9843
-2.0592 -3.1892 -1.0747 0.9843
-1.2252 -2.0562 -0.6776 0.9901
-1.1375 -2.0753 -0.6700 0.9902
-1.0523 -3.5827 -1.0571 0.9846
-0.9208 -3.6104 -1.0548 0.9846
-0.6562 -3.6512 -1.0502 0.9847
0.0072 -3.6688 -1.0386 0.9849
0.1533 -2.0710 -0.5879 0.9914
0.2270 -2.0586 -0.5863 0.9914
0.3143 -2.1405 -0.6125 0.9910
0.6559 -3.5690 -1.0273 0.9850
0.9068 -3.4977 -1.0229 0.9851
1.0298 -3.4555 -1.0208 0.9851
1.1509 -3.4092 -1.0186 0.9852
1.2701 -3.3588 -1.0166 0.9852
1.5022 -3.2458 -1.0125 0.9852
1.5095 -2.1449 -0.7425 0.9892
1.5718 -2.0711 -0.7360 0.9892
2.2346 -2.7345 -0.9997 0.9854
2.3277 -2.6481 -0.9981 0.9854
2.4176 -2.5587 -0.9965 0.9855
2.5042 -2.4664 -0.9950 0.9855
2.5874 -2.3713 -0.9936 0.9855
2.8163 -2.0706 -0.9896 0.9856
2.8854 -1.9656 -0.9884 0.9856
2.9508 -1.8584 -0.9872 0.9856
3.5518 -1.7341 -1.1189 0.9837
3.6166 -1.6074 -1.1204 0.9837
3.6691 -1.4751 -1.1195 0.9837
1.5943 -0.4488 -0.4689 0.9931
1.5988 -0.3886 -0.4658 0.9932
1.6026 -0.3290 -0.4631 0.9932
1.8711 -0.3145 -0.5371 0.9921
2.1290 -0.2796 -0.6079 0.9911
3.9315 -0.2309 -1.1149 0.9838
3.9369 -0.0894 -1.1148 0.9838
3.9107 0.4760 -1.1153 0.9838
3.8922 0.6164 -1.1156 0.9838
3.8689 0.7563 -1.1160 0.9837
3.8082 1.0333 -1.1171 0.9837
3.7708 1.1702 -1.1177 0.9837
3.7288 1.3058 -1.1184 0.9837
3.6821 1.4401 -1.1193 0.9837
3.6308 1.5728 -1.1202 0.9837
2.1197 1.1054 -0.6768 0.9901
1.9457 1.1054 -0.6335 0.9907
1.4952 1.2503 -0.5518 0.9919
2.8786 2.7820 -1.1333 0.9835
2.7809 2.8880 -1.1350 0.9835
2.6795 2.9908 -1.1368 0.9834
2.4657 3.1860 -1.1405 0.9834
2.3536 3.2782 -1.1424 0.9834
2.1196 3.4511 -1.1465 0.9833
1.9978 3.5316 -1.1487 0.9833
1.8731 3.6080 -1.1508 0.9832
1.7456 3.6801 -1.1531 0.9832
1.6153 3.7478 -1.1553 0.9832
-1.0835 1.1998 -0.4972 0.9933
-1.2391 1.1054 -0.5107 0.9931
-1.3326 1.1054 -0.5325 0.9928
-1.4345 1.1054 -0.5570 0.9924
-1.5299 1.0935 -0.5784 0.9922
-3.3682 2.2291 -1.2423 0.9832
-3.7315 1.5990 -1.2487 0.9832
-3.8906 1.1906 -1.2514 0.9831
-3.9705 0.9090 -1.2528 0.9831
-4.0024 0.7660 -1.2534 0.9831
-4.0288 0.6218 -1.2539 0.9831
-4.0498 0.4767 -1.2542 0.9831
-4.0750 0.1846 -1.2547 0.9831
-4.0792 0.0380 -1.2547 0.9831
-4.0709 -0.2552 -1.2546 0.9831
-3.9532 -0.9774 -1.2525 0.9831
-3.9133 -1.1183 -1.2518 0.9831
-3.8682 -1.2574 -1.2510 0.9831
-3.8178 -1.3947 -1.2502 0.9831
-3.7623 -1.5298 -1.2492 0.9831
-3.7017 -1.6627 -1.2481 0.9832
-2.9939 -1.9021 -1.0910 0.9853
-2.9201 -2.0061 -1.0897 0.9853
-2.5781 -2.0587 -1.0148 0.9863
-2.4974 -2.1458 -1.0128 0.9863
-2.5886 -2.3912 -1.0839 0.9854
-2.4973 -2.4790 -1.0823 0.9854
-2.4029 -2.5633 -1.0807 0.9854
-2.3056 -2.6439 -1.0790 0.9854
-1.9975 -2.8624 -1.0736 0.9855
-1.8900 -2.9272 -1.0717 0.9855
-1.1374 -2.0749 -0.7278 0.9901
-1.0854 -2.1609 -0.7438 0.9899
-1.4403 -3.1447 -1.0639 0.9856
-1.3238 -3.1883 -1.0618 0.9857
-1.2060 -3.2276 -1.0598 0.9857
-1.0871 -3.2625 -1.0577 0.9857
-0.7252 -3.3405 -1.0514 0.9858
-0.6034 -3.3576 -1.0493 0.9858
-0.4813 -3.3702 -1.0471 0.9859
0.1533 -2.0713 -0.6388 0.9913
0.6042 -3.2878 -1.0282 0.9861
0.7206 -3.2575 -1.0261 0.9861
0.8356 -3.2231 -1.0241 0.9862
0.9491 -3.1848 -1.0222 0.9862
1.0609 -3.1427 -1.0202 0.9862
1.2792 -3.0469 -1.0164 0.9863
1.5912 -2.8760 -1.0110 0.9863
1.5102 -2.1459 -0.8071 0.9891
1.5720 -2.0714 -0.7998 0.9892
1.7049 -2.0863 -0.8287 0.9888
2.1491 -2.4449 -1.0012 0.9865
2.3126 -2.2777 -0.9984 0.9865
2.5345 -2.0076 -0.9945 0.9866
2.6073 -1.9169 -0.9953 0.9865
2.6660 -1.8161 -0.9922 0.9866
3.2900 -1.6063 -1.1261 0.9848
3.3429 -1.4857 -1.1252 0.9848
3.3916 -1.3636 -1.1243 0.9848
1.5543 -0.4375 -0.4967 0.9933
1.5589 -0.3789 -0.4935 0.9933
2.1513 -0.2825 -0.6674 0.9910
3.6353 -0.2135 -1.1201 0.9849
3.6288 0.3098 -1.1202 0.9849
3.5988 0.5700 -1.1207 0.9849
3.5772 0.6992 -1.1211 0.9849
3.5208 0.9553 -1.1221 0.9848
3.4861 1.0818 -1.1227 0.9848
3.4470 1.2072 -1.1234 0.9848
3.4037 1.3312 -1.1241 0.9848
3.3043 1.5747 -1.1259 0.9848
2.1197 1.1054 -0.7353 0.9900
1.7925 1.1054 -0.6477 0.9912
1.5337 1.1054 -0.5815 0.9921
2.6584 2.5692 -1.1371 0.9846
2.4739 2.7614 -1.1403 0.9846
2.2760 2.9409 -1.1438 0.9846
2.1723 3.0256 -1.1456 0.9845
2.0654 3.1068 -1.1475 0.9845
1.7278 3.3281 -1.1534 0.9844
1.6099 3.3941 -1.1554 0.9844
1.3669 3.5138 -1.1597 0.9843
-1.0483 1.1608 -0.5199 0.9934
-1.0728 1.1054 -0.5120 0.9935
-1.3326 1.1054 -0.5755 0.9927
-3.1052 2.0550 -1.2377 0.9844
-3.1804 1.9441 -1.2390 0.9844
-3.3183 1.7138 -1.2415 0.9844
-3.3807 1.5948 -1.2425 0.9844
-3.4387 1.4735 -1.2436 0.9844
-3.4920 1.3499 -1.2445 0.9843
-3.5407 1.2243 -1.2453 0.9843
-3.6237 0.9679 -1.2468 0.9843
-3.7538 0.1701 -1.2491 0.9843
-3.7501 -0.2351 -1.2490 0.9843
-3.7386 -0.3697 -1.2488 0.9843
-3.7004 -0.6370 -1.2481 0.9843
-3.6421 -0.9005 -1.2471 0.9843
-1.4684 -0.4196 -0.5076 0.9936
-1.4835 -0.5419 -0.5250 0.9934
-3.4669 -1.4097 -1.2440 0.9843
-3.2260 -1.7376 -1.2180 0.9847
-2.7729 -1.7617 -1.0920 0.9862
-2.5463 -2.0334 -1.0832 0.9864
-2.1272 -2.4393 -1.0759 0.9864
-1.9406 -2.5780 -1.0726 0.9865
-1.8437 -2.6420 -1.0709 0.9865
-1.2259 -2.0573 -0.7961 0.9900
-1.1372 -2.0746 -0.7864 0.9901
-1.0848 -2.1598 -0.8034 0.9899
-1.1143 -2.9820 -1.0582 0.9867
-0.8939 -3.0433 -1.0543 0.9867
-0.7824 -3.0678 -1.0524 0.9867
-0.6704 -3.0882 -1.0504 0.9868
-0.4451 -3.1166 -1.0465 0.9868
-0.2192 -3.1287 -1.0426 0.9869
0.0061 -3.1246 -1.0386 0.9869
0.1182 -3.1164 -1.0367 0.9869
0.1533 -2.0717 -0.6905 0.9913
0.5595 -3.0445 -1.0290 0.9870
0.6674 -3.0169 -1.0271 0.9871
0.9830 -2.9118 -1.0216 0.9871
1.2841 -2.7747 -1.0163 0.9872
1.3807 -2.7222 -1.0146 0.9872
1.4753 -2.6665 -1.0130 0.9872
1.5677 -2.6076 -1.0114 0.9873
1.6579 -2.5456 -1.0098 0.9873
1.5109 -2.1470 -0.8727 0.9890
1.5723 -2.0718 -0.8645 0.9891
1.7043 -2.0856 -0.8953 0.9887
2.0714 -2.1923 -1.0026 0.9874
2.1461 -2.1137 -1.0013 0.9874
2.2179 -2.0326 -1.0000 0.9874
2.4155 -1.7759 -0.9966 0.9874
2.7667 -1.7425 -1.0869 0.9863
3.0022 -1.6019 -1.1311 0.9858
3.1500 -1.2665 -1.1285 0.9858
1.5074 -0.5440 -0.5327 0.9933
1.5157 -0.4267 -0.5234 0.9934
1.5205 -0.3696 -0.5201 0.9934
1.5320 -0.3145 -0.5199 0.9934
3.3773 -0.1983 -1.1246 0.9858
3.3790 0.1664 -1.1245 0.9858
3.3712 0.2878 -1.1247 0.9858
3.3593 0.4089 -1.1249 0.9858
3.3433 0.5295 -1.1252 0.9858
3.2989 0.7689 -1.1259 0.9858
3.2705 0.8874 -1.1264 0.9858
3.2381 1.0049 -1.1270 0.9858
3.1170 1.3502 -1.1291 0.9858
3.0687 1.4624 -1.1300 0.9858
1.6561 1.1054 -0.6619 0.9916
1.4469 1.2098 -0.6269 0.9921
1.4369 1.2921 -0.6424 0.9919
2.2049 2.6466 -1.1450 0.9856
2.1113 2.7281 -1.1467 0.9856
1.9155 2.8813 -1.1501 0.9855
1.8135 2.9528 -1.1519 0.9855
1.7089 3.0209 -1.1537 0.9855
1.6018 3.0854 -1.1556 0.9855
1.4923 3.1462 -1.1575 0.9854
1.2667 3.2563 -1.1614 0.9854
-1.0148 1.1237 -0.5415 0.9936
-1.1528 1.1054 -0.5711 0.9932
-1.3326 1.1054 -0.6191 0.9927
-1.4345 1.1054 -0.6476 0.9923
-2.9465 1.8011 -1.2350 0.9854
-3.1315 1.4773 -1.2382 0.9854
-3.1850 1.3648 -1.2391 0.9854
-3.2791 1.1339 -1.2408 0.9854
-3.3557 0.8963 -1.2421 0.9854
-3.3873 0.7755 -1.2427 0.9853
-3.4366 0.5304 -1.2435 0.9853
-3.4674 0.2823 -1.2441 0.9853
-3.4757 0.1574 -1.2442 0.9853
-3.4781 -0.0927 -1.2442 0.9853
-3.4722 -0.2176 -1.2441 0.9853
-1.3110 -0.3241 -0.4829 0.9943
-1.2479 -0.4056 -0.4692 0.9944
-1.2158 -0.4944 -0.4694 0.9944
-2.9610 -1.7350 -1.2273 0.9855
-2.7482 -1.7460 -1.1643 0.9863
-2.4287 -1.8003 -1.0811 0.9872
-2.3598 -1.8844 -1.0799 0.9873
-2.2130 -2.0442 -1.0774 0.9873
-1.9723 -2.2617 -1.0732 0.9873
-1.8871 -2.3279 -1.0717 0.9874
-1.7997 -2.3909 -1.0701 0.9874
-1.7101 -2.4504 -1.0686 0.9874
-1.6184 -2.5066 -1.0670 0.9874
-1.1370 -2.0742 -0.8459 0.9900
-1.2347 -2.6956 -1.0603 0.9875
-1.1351 -2.7338 -1.0585 0.9875
-1.0344 -2.7682 -1.0568 0.9875
-0.9326 -2.7989 -1.0550 0.9875
-0.5182 -2.8838 -1.0478 0.9876
-0.3086 -2.9034 -1.0441 0.9877
0.1099 -2.8972 -1.0368 0.9878
0.3128 -2.1303 -0.7700 0.9909
0.5204 -2.8318 -1.0296 0.9878
0.8181 -2.7454 -1.0244 0.9879
0.9148 -2.7098 -1.0228 0.9879
1.0100 -2.6708 -1.0211 0.9879
1.1036 -2.6285 -1.0195 0.9880
1.1954 -2.5831 -1.0179 0.9880
1.3737 -2.4829 -1.0147 0.9880
1.5116 -2.1480 -0.9393 0.9889
1.5726 -2.0722 -0.9302 0.9890
1.7037 -2.0848 -0.9628 0.9886
1.8578 -2.1135 -1.0063 0.9881
1.9302 -2.0428 -1.0050 0.9881
1.9999 -1.9697 -1.0038 0.9881
2.0670 -1.8943 -1.0026 0.9882
2.1314 -1.8168 -1.0015 0.9882
2.5540 -1.7398 -1.1051 0.9870
2.7994 -1.4937 -1.1347 0.9866
2.9377 -1.1811 -1.1323 0.9866
1.4866 -0.5364 -0.5652 0.9933
1.4901 -0.4779 -0.5596 0.9934
1.4960 -0.3636 -0.5505 0.9935
1.5320 -0.3145 -0.5593 0.9934
1.8711 -0.3145 -0.6785 0.9920
2.1827 -0.2866 -0.7872 0.9907
3.1421 -0.2982 -1.1287 0.9867
3.1504 -0.1850 -1.1285 0.9867
3.1548 -0.0716 -1.1285 0.9867
3.1519 0.1552 -1.1285 0.9867
3.1335 0.3814 -1.1288 0.9867
3.1185 0.4939 -1.1291 0.9867
3.0201 0.9372 -1.1308 0.9867
2.9860 1.0457 -1.1314 0.9866
2.8616 1.3637 -1.1336 0.9866
1.9457 1.1054 -0.8002 0.9905
1.7925 1.1054 -0.7531 0.9911
1.6561 1.1054 -0.7120 0.9916
1.5337 1.1054 -0.6761 0.9920
1.4334 1.1135 -0.6491 0.9923
2.2991 2.2220 -1.1434 0.9865
2.0542 2.4658 -1.1477 0.9865
1.9668 2.5414 -1.1492 0.9864
1.8768 2.6140 -1.1508 0.9864
1.7841 2.6836 -1.1524 0.9864
1.6889 2.7499 -1.1540 0.9864
1.5913 2.8130 -1.1558 0.9864
1.3893 2.9290 -1.1593 0.9863
1.2851 2.9817 -1.1611 0.9863
-0.9982 1.1054 -0.5708 0.9936
-1.2391 1.1054 -0.6363 0.9929
-1.5465 1.1054 -0.7285 0.9919
-2.7416 1.6759 -1.2314 0.9863
-2.8598 1.4770 -1.2334 0.9863
-3.0085 1.1630 -1.2360 0.9863
-3.1211 0.8337 -1.2380 0.9863
-3.1504 0.7212 -1.2385 0.9863
-3.2246 0.2625 -1.2398 0.9862
-3.2356 0.0301 -1.2400 0.9862
-3.2291 -0.2024 -1.2399 0.9862
-3.2193 -0.3183 -1.2397 0.9862
-1.5515 -0.2671 -0.6033 0.9933
-1.5570 -0.3260 -0.6096 0.9932
-1.2721 -0.3145 -0.5022 0.9944
-1.1896 -0.3399 -0.4741 0.9947
-1.1705 -0.4276 -0.4776 0.9947
-1.1593 -0.4714 -0.4796 0.9947
-1.1469 -0.5152 -0.4818 0.9946
-1.1334 -0.5589 -0.4843 0.9946
-2.8326 -1.5258 -1.2330 0.9863
-2.7736 -1.6252 -1.2319 0.9863
-2.7110 -1.7224 -1.2309 0.9863
-2.5365 -1.7425 -1.1793 0.9869
-2.3630 -1.7516 -1.1272 0.9875
-2.2063 -1.7618 -1.0820 0.9880
-2.1295 -1.8296 -1.0759 0.9880
-2.0600 -1.9029 -1.0747 0.9881
-1.9879 -1.9734 -1.0734 0.9881
-1.7573 -2.1678 -1.0694 0.9881
-1.6760 -2.2266 -1.0680 0.9881
-1.5927 -2.2823 -1.0665 0.9881
-1.5075 -2.3348 -1.0650 0.9882
-1.2266 -2.0585 -0.9183 0.9898
-1.1368 -2.0739 -0.9063 0.9899
-0.9641 -2.5802 -1.0556 0.9883
-0.8694 -2.6091 -1.0539 0.9883
-0.7738 -2.6345 -1.0522 0.9883
-0.6775 -2.6564 -1.0506 0.9883
-0.5806 -2.6747 -1.0489 0.9883
-0.3857 -2.7007 -1.0455 0.9884
0.1534 -2.0724 -0.7964 0.9911
0.2269 -2.0571 -0.7931 0.9912
0.6725 -2.5941 -1.0270 0.9886
0.7642 -2.5643 -1.0254 0.9886
0.8545 -2.5313 -1.0238 0.9886
0.9435 -2.4951 -1.0223 0.9886
1.2014 -2.3686 -1.0178 0.9887
1.2839 -2.3206 -1.0163 0.9887
1.5729 -2.0725 -0.9970 0.9889
1.6671 -2.0401 -1.0096 0.9888
1.8705 -1.8422 -1.0061 0.9888
2.0580 -1.7542 -1.0363 0.9885
2.5696 -1.4921 -1.1387 0.9874
2.6195 -1.3977 -1.1378 0.9874
2.6662 -1.3017 -1.1370 0.9874
2.7493 -1.1053 -1.1355 0.9874
1.4697 -0.4714 -0.5915 0.9934
2.1830 -0.2867 -0.8437 0.9906
2.9412 -0.2791 -1.1322 0.9874
2.9490 -0.1732 -1.1321 0.9874
2.9332 0.3570 -1.1323 0.9874
2.9013 0.5671 -1.1329 0.9874
2.8800 0.6713 -1.1333 0.9874
2.7592 1.0791 -1.1354 0.9874
2.6779 1.2762 -1.1368 0.9874
1.5337 1.1054 -0.7245 0.9919
1.4223 1.1893 -0.7105 0.9921
2.0766 2.1566 -1.1473 0.9873
2.0000 2.2324 -1.1486 0.9872
1.7546 2.4438 -1.1529 0.9872
1.6678 2.5086 -1.1544 0.9872
1.4873 2.6291 -1.1576 0.9871
1.3938 2.6847 -1.1592 0.9871
1.2982 2.7370 -1.1609 0.9871
1.2007 2.7860 -1.1626 0.9871
1.1015 2.8315 -1.1643 0.9871
-1.0728 1.1054 -0.6304 0.9934
-1.1528 1.1054 -0.6537 0.9931
-1.2391 1.1054 -0.6796 0.9928
-1.3326 1.1054 -0.7086 0.9925
-1.4345 1.1054 -0.7412 0.9922
-2.5605 1.5651 -1.2282 0.9871
-2.6705 1.3793 -1.2301 0.9871
-2.7665 1.1854 -1.2318 0.9871
-2.8090 1.0859 -1.2326 0.9871
-2.9139 0.7783 -1.2344 0.9870
-2.9411 0.6733 -1.2349 0.9870
-2.9644 0.5673 -1.2353 0.9870
-2.9837 0.4605 -1.2356 0.9870
-3.0102 0.2450 -1.2361 0.9870
-3.0195 -0.0805 -1.2362 0.9870
-3.0053 -0.2971 -1.2360 0.9870
-2.9921 -0.4049 -1.2358 0.9870
-1.6072 -0.2767 -0.6675 0.9930
-1.1277 -0.3666 -0.4853 0.9949
-1.1179 -0.4084 -0.4871 0.9949
-1.0949 -0.4918 -0.4912 0.9948
-2.6453 -1.4248 -1.2297 0.9871
-2.5320 -1.6086 -1.2277 0.9871
-2.4703 -1.6971 -1.2266 0.9871
-1.7950 -1.9148 -1.0742 0.9887
-1.7162 -1.9680 -1.0687 0.9888
-1.1366 -2.0735 -0.9678 0.9898
-1.0830 -2.1563 -0.9876 0.9896
-0.9894 -2.3829 -1.0560 0.9889
-0.9018 -2.4134 -1.0545 0.9889
-0.8133 -2.4407 -1.0529 0.9889
-0.6339 -2.4854 -1.0498 0.9890
-0.5433 -2.5028 -1.0482 0.9890
-0.4523 -2.5169 -1.0466 0.9890
-0.3610 -2.5277 -1.0450 0.9890
-0.1779 -2.5393 -1.0418 0.9891
-0.0864 -2.5402 -1.0402 0.9891
0.0050 -2.5378 -1.0386 0.9891
0.2268 -2.0567 -0.8469 0.9911
0.3118 -2.1233 -0.8783 0.9908
0.6302 -2.4307 -1.0277 0.9892
0.7161 -2.4030 -1.0262 0.9892
0.8009 -2.3723 -1.0247 0.9892
1.0472 -2.2627 -1.0204 0.9893
1.2038 -2.1758 -1.0177 0.9893
1.4256 -2.0258 -1.0138 0.9894
1.6934 -1.7923 -1.0092 0.9894
1.7841 -1.7572 -1.0249 0.9892
2.3086 -1.5726 -1.1432 0.9880
2.3617 -1.4874 -1.1423 0.9880
2.4118 -1.4005 -1.1414 0.9880
2.4588 -1.3119 -1.1406 0.9880
2.5027 -1.2219 -1.1398 0.9880
2.5434 -1.1304 -1.1391 0.9880
1.4455 -0.5216 -0.6290 0.9934
1.4557 -0.3538 -0.6131 0.9935
1.5320 -0.3145 -0.6401 0.9933
1.8711 -0.3145 -0.7766 0.9918
2.1833 -0.2867 -0.9012 0.9905
2.7728 -0.0630 -1.1351 0.9881
2.7733 0.0368 -1.1351 0.9881
2.7703 0.1364 -1.1352 0.9881
2.7540 0.3352 -1.1355 0.9881
2.7240 0.5325 -1.1360 0.9881
2.6236 0.9188 -1.1377 0.9881
2.4706 1.2884 -1.1404 0.9880
1.6561 1.1054 -0.8149 0.9914
1.4229 1.1054 -0.7374 0.9922
1.4143 1.1826 -0.7545 0.9921
2.0175 1.9498 -1.1483 0.9879
1.9482 2.0232 -1.1495 0.9879
1.8762 2.0942 -1.1508 0.9879
1.8018 2.1628 -1.1521 0.9879
1.6456 2.2920 -1.1548 0.9879
1.5641 2.3526 -1.1562 0.9879
1.4803 2.4103 -1.1577 0.9878
1.3945 2.4652 -1.1592 0.9878
1.3067 2.5170 -1.1607 0.9878
1.2171 2.5659 -1.1623 0.9878
1.0324 2.6540 -1.1655 0.9878
-1.1528 1.1054 -0.6961 0.9931
-1.2391 1.1054 -0.7237 0.9928
-1.3326 1.1054 -0.7546 0.9925
-2.3991 1.4664 -1.2254 0.9878
-2.4521 1.3803 -1.2263 0.9878
-2.5484 1.2022 -1.2280 0.9878
-2.6313 1.0172 -1.2295 0.9878
-2.6675 0.9224 -1.2301 0.9878
-2.7002 0.8263 -1.2307 0.9878
-2.7765 0.5314 -1.2320 0.9877
-2.7945 0.4313 -1.2323 0.9877
-2.8192 0.2295 -1.2327 0.9877
-2.8288 0.0264 -1.2329 0.9877
-2.8279 -0.0754 -1.2329 0.9877
-2.8232 -0.1770 -1.2328 0.9877
-2.8147 -0.2783 -1.2327 0.9877
-1.6148 -0.2780 -0.7141 0.9929
-1.5019 -0.3145 -0.6688 0.9933
-1.2721 -0.3145 -0.5711 0.9943
-1.1006 -0.3145 -0.4989 0.9950
-1.0841 -0.3524 -0.4968 0.9950
-1.0723 -0.4360 -0.5045 0.9950
-1.0653 -0.4785 -0.5090 0.9949
-1.0576 -0.5215 -0.5139 0.9949
-2.4269 -1.4221 -1.2259 0.9878
-2.3148 -1.5902 -1.2239 0.9878
-2.2541 -1.6710 -1.2229 0.9878
-2.0291 -1.7434 -1.1659 0.9884
-1.7701 -1.7572 -1.0870 0.9892
-1.6088 -1.8449 -1.0668 0.9894
-1.5397 -1.8994 -1.0656 0.9894
-1.4687 -1.9512 -1.0644 0.9894
-1.3960 -2.0004 -1.0631 0.9894
-1.3216 -2.0468 -1.0618 0.9894
-1.2273 -2.0597 -1.0449 0.9896
-1.1364 -2.0731 -1.0303 0.9897
-0.9282 -2.2355 -1.0549 0.9895
-0.6793 -2.3129 -1.0506 0.9895
-0.5949 -2.3326 -1.0491 0.9896
-0.5100 -2.3491 -1.0476 0.9896
-0.4246 -2.3626 -1.0461 0.9896
-0.2530 -2.3801 -1.0431 0.9896
-0.1670 -2.3842 -1.0416 0.9896
-0.0811 -2.3853 -1.0401 0.9896
0.0902 -2.3781 -1.0372 0.9897
0.1534 -2.0732 -0.9060 0.9910
0.3113 -2.1197 -0.9337 0.9907
0.5104 -2.3072 -1.0298 0.9897
0.7527 -2.2296 -1.0256 0.9898
0.9845 -2.1272 -1.0215 0.9898
1.0590 -2.0878 -1.0202 0.9898
1.1319 -2.0458 -1.0190 0.9898
1.3470 -1.9141 -1.0201 0.9898
1.4068 -1.8537 -1.0142 0.9899
1.5460 -1.7588 -1.0205 0.9898
1.8974 -1.7389 -1.1217 0.9888
2.0056 -1.7095 -1.1485 0.9886
2.0639 -1.6349 -1.1475 0.9886
2.1196 -1.5583 -1.1465 0.9886
2.1725 -1.4799 -1.1456 0.9886
2.2698 -1.3180 -1.1439 0.9886
2.3556 -1.1500 -1.1424 0.9886
1.4309 -0.5163 -0.6630 0.9934
1.4359 -0.3490 -0.6440 0.9936
1.5320 -0.3145 -0.6816 0.9932
1.8711 -0.3145 -0.8269 0.9918
2.5897 -0.3401 -1.1383 0.9887
2.5999 -0.2467 -1.1381 0.9887
2.6068 -0.1531 -1.1380 0.9887
2.6104 -0.0593 -1.1380 0.9887
2.6109 0.0346 -1.1380 0.9887
2.6080 0.1284 -1.1380 0.9887
2.5927 0.3156 -1.1383 0.9887
2.5802 0.4086 -1.1385 0.9887
2.5644 0.5013 -1.1388 0.9887
2.5234 0.6847 -1.1395 0.9887
2.4981 0.7752 -1.1399 0.9887
2.4036 1.0412 -1.1416 0.9886
2.3660 1.1275 -1.1422 0.9886
2.3253 1.2126 -1.1429 0.9886
1.9457 1.1054 -0.9753 0.9903
1.7925 1.1054 -0.9178 0.9909
1.6561 1.1054 -0.8678 0.9913
1.5337 1.1054 -0.8239 0.9918
1.4108 1.1797 -0.8015 0.9920
1.4171 1.2743 -0.8306 0.9917
1.8327 1.9033 -1.1515 0.9885
1.7649 1.9700 -1.1527 0.9885
1.5477 2.1556 -1.1565 0.9885
1.4709 2.2124 -1.1579 0.9885
1.3920 2.2666 -1.1592 0.9885
1.3113 2.3180 -1.1606 0.9884
1.2286 2.3665 -1.1621 0.9884
1.1442 2.4122 -1.1636 0.9884
1.0581 2.4550 -1.1651 0.9884
-0.9982 1.1054 -0.6894 0.9935
-1.1528 1.1054 -0.7393 0.9930
-1.5465 1.1054 -0.8799 0.9917
-2.3505 1.2140 -1.2246 0.9884
-2.4346 1.0432 -1.2260 0.9884
-2.4718 0.9555 -1.2267 0.9884
-2.5637 0.6848 -1.2283 0.9884
-2.5875 0.5923 -1.2287 0.9884
-2.6079 0.4991 -1.2291 0.9884
-2.6479 0.2156 -1.2298 0.9884
-2.6569 0.0247 -1.2299 0.9884
-2.6516 -0.1662 -1.2298 0.9884
-1.6216 -0.2791 -0.7617 0.9928
-1.2721 -0.3145 -0.6066 0.9942
-1.1006 -0.3145 -0.5299 0.9950
-1.0512 -0.3840 -0.5180 0.9951
-1.0215 -0.5502 -0.5371 0.9949
-2.2291 -1.4162 -1.2224 0.9884
-2.1751 -1.4943 -1.2215 0.9884
-2.1182 -1.5702 -1.2205 0.9884
-2.0586 -1.6439 -1.2195 0.9885
-1.9964 -1.7153 -1.2184 0.9885
-1.7589 -1.7460 -1.1472 0.9891
-1.6425 -1.7522 -1.1117 0.9895
-1.5329 -1.7578 -1.0796 0.9898
-1.4475 -1.7856 -1.0640 0.9899
-1.3125 -1.8808 -1.0616 0.9899
-1.2427 -1.9246 -1.0604 0.9900
-1.0986 -2.0041 -1.0579 0.9900
-0.9494 -2.0728 -1.0553 0.9900
-0.7179 -2.1546 -1.0513 0.9900
-0.5598 -2.1949 -1.0485 0.9901
-0.4799 -2.2106 -1.0471 0.9901
-0.3996 -2.2235 -1.0457 0.9901
-0.2381 -2.2404 -1.0429 0.9901
-0.1572 -2.2445 -1.0415 0.9901
0.0044 -2.2439 -1.0387 0.9902
0.0850 -2.2392 -1.0372 0.9902
0.1535 -2.0736 -0.9624 0.9909
0.2267 -2.0559 -0.9574 0.9909
0.3107 -2.1161 -0.9900 0.9906
0.4808 -2.1734 -1.0303 0.9902
0.5579 -2.1519 -1.0290 0.9902
0.6340 -2.1277 -1.0277 0.9903
0.9981 -1.9677 -1.0213 0.9903
1.1342 -1.8866 -1.0189 0.9903
1.2640 -1.7962 -1.0167 0.9904
1.4333 -1.7539 -1.0485 0.9901
1.5367 -1.7482 -1.0774 0.9898
1.6459 -1.7420 -1.1093 0.9895
1.7617 -1.7351 -1.1446 0.9892
1.8340 -1.6808 -1.1515 0.9891
1.8916 -1.6124 -1.1505 0.9891
1.9467 -1.5420 -1.1496 0.9891
2.0966 -1.3205 -1.1469 0.9891
2.2587 -1.0038 -1.1441 0.9892
1.4255 -0.4572 -0.6929 0.9934
1.4267 -0.4016 -0.6861 0.9935
1.4278 -0.3470 -0.6801 0.9935
1.5320 -0.3145 -0.7239 0.9931
1.8711 -0.3145 -0.8783 0.9917
2.4533 -0.2328 -1.1407 0.9892
2.4611 0.1212 -1.1406 0.9892
2.4553 0.2096 -1.1407 0.9892
2.4465 0.2978 -1.1408 0.9892
2.4347 0.3856 -1.1410 0.9892
2.4198 0.4730 -1.1413 0.9892
2.4019 0.5598 -1.1416 0.9892
2.3810 0.6460 -1.1420 0.9892
2.3571 0.7315 -1.1424 0.9892
2.3302 0.8161 -1.1429 0.9892
2.3004 0.8997 -1.1434 0.9892
2.2322 1.0638 -1.1446 0.9892
2.1938 1.1440 -1.1452 0.9892
1.9457 1.1054 -1.0358 0.9902
1.5337 1.1054 -0.8751 0.9917
1.4229 1.1054 -0.8340 0.9921
1.7900 1.7299 -1.1523 0.9891
1.7283 1.7949 -1.1534 0.9891
1.6643 1.8576 -1.1545 0.9891
1.5980 1.9182 -1.1556 0.9891
1.4591 2.0323 -1.1581 0.9890
1.3866 2.0857 -1.1593 0.9890
1.3122 2.1366 -1.1606 0.9890
1.1580 2.2305 -1.1633 0.9890
1.0783 2.2734 -1.1647 0.9890
0.9971 2.3135 -1.1661 0.9890
0.9145 2.3508 -1.1676 0.9889
-1.0728 1.1054 -0.7556 0.9932
-1.3326 1.1054 -0.8493 0.9923
-2.3277 0.8998 -1.2242 0.9889
-2.3597 0.8159 -1.2247 0.9889
-2.3884 0.7309 -1.2252 0.9889
-2.4556 0.4700 -1.2264 0.9889
-2.4715 0.3815 -1.2267 0.9889
-2.4840 0.2924 -1.2269 0.9889
-2.4933 0.2030 -1.2270 0.9889
-2.5009 -0.0666 -1.2272 0.9889
-2.4967 -0.1565 -1.2271 0.9889
-2.4892 -0.2461 -1.2270 0.9889
-1.5019 -0.3145 -0.7527 0.9932
-1.1006 -0.3145 -0.5615 0.9949
-1.0246 -0.3743 -0.5351 0.9952
-0.9948 -0.5358 -0.5543 0.9950
-1.9954 -1.4791 -1.2184 0.9890
-1.9393 -1.5486 -1.2174 0.9890
-1.7475 -1.7347 -1.2078 0.9891
-1.6323 -1.7412 -1.1707 0.9894
-1.3227 -1.7572 -1.0789 0.9902
-1.1713 -1.8140 -1.0592 0.9904
-0.8233 -1.9828 -1.0531 0.9905
-0.6770 -2.0319 -1.0505 0.9905
-0.6028 -2.0523 -1.0492 0.9905
-0.4527 -2.0851 -1.0466 0.9905
-0.3769 -2.0974 -1.0453 0.9906
0.0042 -2.1174 -1.0387 0.9906
0.1535 -2.0740 -1.0201 0.9908
0.3061 -2.0843 -1.0334 0.9907
0.3803 -2.0694 -1.0321 0.9907
0.4539 -2.0518 -1.0308 0.9907
0.5987 -2.0090 -1.0283 0.9907
0.8763 -1.8935 -1.0234 0.9907
0.9427 -1.8586 -1.0223 0.9908
1.0715 -1.7822 -1.0200 0.9908
1.2343 -1.7539 -1.0520 0.9905
1.3273 -1.7490 -1.0770 0.9903
1.4249 -1.7436 -1.1045 0.9900
1.5274 -1.7376 -1.1348 0.9897
1.6765 -1.6512 -1.1543 0.9896
1.7878 -1.5239 -1.1523 0.9896
1.8400 -1.4575 -1.1514 0.9896
1.8898 -1.3894 -1.1505 0.9896
1.9371 -1.3196 -1.1497 0.9896
1.9820 -1.2482 -1.1489 0.9896
2.0639 -1.1012 -1.1475 0.9896
2.1010 -1.0258 -1.1469 0.9896
2.1354 -0.9491 -1.1463 0.9896
1.4171 -0.5114 -0.7390 0.9933
1.4186 -0.4550 -0.7308 0.9934
1.4210 -0.3454 -0.7174 0.9935
1.5320 -0.3145 -0.7671 0.9931
2.3198 -0.2202 -1.1430 0.9897
2.3293 -0.0529 -1.1429 0.9897
2.3297 0.0309 -1.1429 0.9897
2.3217 0.1982 -1.1430 0.9897
2.3022 0.3646 -1.1433 0.9897
2.2286 0.6916 -1.1446 0.9897
2.1750 0.8506 -1.1456 0.9896
2.1103 1.0057 -1.1467 0.9896
2.0739 1.0815 -1.1473 0.9896
1.6561 1.1054 -0.9767 0.9912
1.5337 1.1054 -0.9273 0.9916
1.4362 1.2009 -0.9183 0.9917
1.6917 1.6349 -1.1540 0.9896
1.5100 1.8125 -1.1572 0.9895
1.3786 1.9201 -1.1595 0.9895
1.2396 2.0184 -1.1619 0.9895
1.1675 2.0639 -1.1632 0.9895
1.0185 2.1472 -1.1658 0.9895
-1.1528 1.1054 -0.8286 0.9928
-1.2391 1.1054 -0.8614 0.9925
-1.4345 1.1054 -0.9395 0.9919
-2.0481 1.1529 -1.2193 0.9895
-2.1281 1.0039 -1.2207 0.9895
-2.2540 0.6898 -1.2229 0.9894
-2.2993 0.5264 -1.2237 0.9894
-2.3173 0.4435 -1.2240 0.9894
-2.3441 0.2759 -1.2244 0.9894
-2.3583 0.1068 -1.2247 0.9894
-2.3560 -0.1477 -1.2247 0.9894
-2.3490 -0.2323 -1.2245 0.9894
-1.6359 -0.2816 -0.8611 0.9925
-1.5019 -0.3145 -0.7961 0.9931
-1.0046 -0.3266 -0.5480 0.9953
-0.9989 -0.3649 -0.5517 0.9952
-0.9853 -0.4426 -0.5604 0.9951
-0.9775 -0.4820 -0.5654 0.9951
-1.9819 -1.2591 -1.2181 0.9895
-1.8309 -1.4620 -1.2155 0.9895
-1.7183 -1.5872 -1.2135 0.9895
-1.6587 -1.6466 -1.2125 0.9895
-1.5970 -1.7036 -1.2114 0.9895
-1.4121 -1.7419 -1.1633 0.9899
-1.3150 -1.7469 -1.1343 0.9902
-0.9125 -1.8167 -1.0547 0.9909
-0.7778 -1.8734 -1.0523 0.9909
-0.7092 -1.8979 -1.0511 0.9909
-0.4990 -1.9564 -1.0474 0.9909
-0.3563 -1.9825 -1.0449 0.9910
-0.2844 -1.9916 -1.0437 0.9910
-0.2124 -1.9981 -1.0424 0.9910
0.0039 -2.0021 -1.0387 0.9910
0.0758 -1.9983 -1.0374 0.9910
0.3597 -1.9574 -1.0324 0.9911
0.4983 -1.9219 -1.0300 0.9911
0.5664 -1.9006 -1.0288 0.9911
0.6999 -1.8508 -1.0265 0.9911
0.8946 -1.7637 -1.0260 0.9911
1.0538 -1.7528 -1.0610 0.9908
1.1388 -1.7486 -1.0825 0.9906
1.2272 -1.7439 -1.1063 0.9904
1.4135 -1.7297 -1.1589 0.9900
1.4735 -1.6763 -1.1578 0.9900
1.5314 -1.6208 -1.1568 0.9900
1.6412 -1.5041 -1.1549 0.9900
1.6929 -1.4430 -1.1540 0.9900
1.7896 -1.3157 -1.1523 0.9900
1.8345 -1.2497 -1.1515 0.9900
1.9899 -0.9715 -1.1488 0.9901
2.0226 -0.8989 -1.1482 0.9901
2.0526 -0.8253 -1.1477 0.9901
1.4117 -0.4528 -0.7691 0.9933
1.4131 -0.3978 -0.7616 0.9934
1.8711 -0.3145 -0.9843 0.9915
2.1889 -0.2875 -1.1453 0.9901
2.1976 -0.2086 -1.1452 0.9901
2.2066 -0.0501 -1.1450 0.9901
2.2045 0.1086 -1.1450 0.9901
2.1915 0.2667 -1.1453 0.9901
2.1808 0.3454 -1.1455 0.9901
2.1674 0.4237 -1.1457 0.9901
2.1513 0.5014 -1.1460 0.9901
2.1325 0.5786 -1.1463 0.9901
2.0601 0.8057 -1.1476 0.9901
2.0307 0.8796 -1.1481 0.9901
1.9988 0.9525 -1.1486 0.9901
1.9643 1.0243 -1.1492 0.9901
1.3681 1.7678 -1.1596 0.9900
1.3049 1.8175 -1.1608 0.9900
1.1733 1.9104 -1.1631 0.9899
0.8911 2.0675 -1.1680 0.9899
0.8171 2.1006 -1.1693 0.9899
-1.2391 1.1054 -0.9094 0.9925
-1.3326 1.1054 -0.9483 0.9921
-1.4345 1.1054 -0.9919 0.9918
-1.8512 1.2251 -1.2158 0.9899
-1.8953 1.1585 -1.2166 0.9899
-2.0123 0.9493 -1.2187 0.9899
-2.1313 0.6522 -1.2207 0.9899
-2.1910 0.4193 -1.2218 0.9899
-2.2051 0.3403 -1.2220 0.9899
-2.2244 0.1811 -1.2224 0.9899
-2.2208 -0.2196 -1.2223 0.9899
-1.6433 -0.2829 -0.9133 0.9924
-1.1007 -0.3145 -0.6270 0.9948
-0.9738 -0.3557 -0.5678 0.9953
-0.9688 -0.3939 -0.5728 0.9952
-0.9596 -0.4732 -0.5860 0.9951
-0.9543 -0.5140 -0.5937 0.9951
-0.9484 -0.5557 -0.6021 0.9950
-1.8743 -1.1908 -1.2162 0.9899
-1.7317 -1.3828 -1.2138 0.9899
-1.6796 -1.4431 -1.2128 0.9900
-1.6254 -1.5014 -1.2119 0.9900
-1.5691 -1.5576 -1.2109 0.9900
-1.5108 -1.6116 -1.2099 0.9900
