ply
format ascii 1.0
element vertex 1587
property float32 x
property float32 y
property float32 z
property float32 I
end_header
39.7420 -24.7809 0.7911 0.8291
40.3397 -23.1891 0.7860 0.8302
42.6182 -20.5897 0.7995 0.8275
9.7959 -3.1025 0.1736 0.9597
-2.9940 9.4024 0.1667 0.9613
-8.6664 -3.5197 0.1580 0.9633
5.9139 -4.6378 -0.0423 0.9704
39.0441 -26.3340 -0.2651 0.8283
40.0321 -23.0123 -0.2600 0.8314
40.6279 -21.4562 -0.2587 0.8321
42.0991 -20.3389 -0.2632 0.8294
43.8500 -17.4323 -0.2657 0.8280
9.4786 -3.3802 -0.0567 0.9605
8.6436 -2.0700 -0.0500 0.9651
44.9773 -2.5165 -0.2536 0.8351
43.8691 17.2224 -0.2653 0.8282
43.5150 20.7933 -0.2715 0.8246
43.0814 24.5199 -0.2791 0.8201
14.2839 11.1032 -0.1019 0.9302
16.3056 31.3168 -0.1988 0.8683
5.3368 17.1986 -0.1014 0.9305
-2.9932 9.4000 -0.0555 0.9613
-7.9612 7.5798 -0.0619 0.9570
-7.9648 7.0569 -0.0599 0.9583
-8.1648 6.7278 -0.0596 0.9586
-46.7215 10.6135 -0.2697 0.8256
-49.8883 -3.1615 -0.2814 0.8188
-30.9938 -16.6625 -0.1981 0.8687
-20.2239 -43.8044 -0.2716 0.8245
19.7774 -22.2522 -0.8383 0.8877
20.8457 -20.3167 -0.8196 0.8900
21.3354 -19.3530 -0.8111 0.8911
5.9106 -4.6353 -0.2115 0.9704
2.9189 -2.1247 -0.1017 0.9857
3.0847 -2.0805 -0.1048 0.9852
24.0068 -12.6784 -0.7645 0.8971
24.7821 -9.8520 -0.7509 0.8988
5.8092 -2.0717 -0.1737 0.9756
7.2492 -2.2959 -0.2141 0.9700
8.6458 -2.0705 -0.2503 0.9651
25.8161 -3.3111 -0.7329 0.9011
25.8792 -2.3805 -0.7318 0.9012
25.9434 -0.5205 -0.7307 0.9014
25.9446 0.4092 -0.7306 0.9014
25.9253 1.3391 -0.7310 0.9013
25.8247 3.1996 -0.7327 0.9011
25.7434 4.1308 -0.7341 0.9009
25.6410 5.0626 -0.7359 0.9007
25.5176 5.9955 -0.7381 0.9004
25.3730 6.9294 -0.7406 0.9001
25.2068 7.8647 -0.7435 0.8997
24.8087 9.7395 -0.7505 0.8988
24.5762 10.6795 -0.7545 0.8983
24.3206 11.6214 -0.7590 0.8978
23.7392 13.5113 -0.7691 0.8965
21.3920 19.2377 -0.8101 0.8913
20.3904 21.1673 -0.8276 0.8890
17.2890 19.2852 -0.7293 0.9015
16.7864 20.1314 -0.7381 0.9004
15.6964 21.8303 -0.7571 0.8980
15.1068 22.6828 -0.7674 0.8967
14.4861 23.5371 -0.7782 0.8953
13.8333 24.3930 -0.7896 0.8939
12.4261 26.1087 -0.8142 0.8907
10.0415 28.6864 -0.8558 0.8855
5.3448 17.2244 -0.5078 0.9304
6.2881 32.1097 -0.9213 0.8773
5.2360 32.9587 -0.9397 0.8750
4.1348 33.8026 -0.9589 0.8726
2.9824 34.6407 -0.9790 0.8701
1.7769 35.4716 -1.0001 0.8675
0.5161 36.2940 -1.0221 0.8648
-2.1800 37.9065 -1.0691 0.8590
-3.6197 38.6925 -1.0943 0.8560
-10.0428 41.6495 -1.2064 0.8425
-2.9924 9.3976 -0.2777 0.9613
-15.6197 43.5859 -1.3037 0.8309
-17.6342 44.1582 -1.3389 0.8267
-19.7295 44.6861 -1.3755 0.8224
-7.7217 6.8415 -0.2905 0.9596
-7.8851 6.4973 -0.2877 0.9599
-8.4708 6.4847 -0.3004 0.9582
-9.1426 6.4930 -0.3158 0.9561
-46.7026 10.6092 -1.3485 0.8256
-20.8703 -2.0755 -0.5906 0.9195
-15.2341 -2.0684 -0.4329 0.9403
-26.5233 -4.5743 -0.7579 0.8979
-8.8781 -3.2402 -0.2661 0.9629
-8.7172 -3.5404 -0.2649 0.9631
-30.9608 -16.6448 -0.9898 0.8688
-20.3671 -16.2170 -0.7331 0.9011
-10.8674 -41.9703 -1.2208 0.8407
4.1867 -4.7106 -0.3196 0.9751
13.7737 -12.4939 -0.9431 0.9282
14.1210 -11.9153 -0.9370 0.9287
15.3262 -9.5566 -0.9160 0.9302
15.5823 -8.9574 -0.9115 0.9305
15.8207 -8.3551 -0.9073 0.9308
6.8316 -2.1637 -0.3634 0.9717
17.1044 -3.4534 -0.8849 0.9325
17.2560 -2.2132 -0.8823 0.9327
17.3410 -0.9703 -0.8808 0.9328
17.3440 0.8958 -0.8808 0.9328
17.3118 1.5176 -0.8813 0.9328
17.1975 2.7595 -0.8833 0.9326
17.0165 3.9981 -0.8865 0.9324
16.7681 5.2317 -0.8908 0.9321
16.4518 6.4587 -0.8963 0.9317
15.8480 8.2828 -0.9069 0.9309
15.6118 8.8855 -0.9110 0.9306
12.6220 9.8114 -0.8108 0.9380
12.0368 10.8247 -0.8210 0.9372
11.7198 11.3247 -0.8265 0.9368
11.0359 12.3101 -0.8384 0.9359
10.6688 12.7947 -0.8449 0.9355
8.5736 15.1183 -0.8814 0.9328
6.5764 16.8283 -0.9163 0.9302
4.2845 18.3633 -0.9563 0.9273
1.0000 19.9619 -1.0136 0.9231
-0.4427 20.4787 -1.0388 0.9212
-1.1908 20.7068 -1.0519 0.9203
-1.9564 20.9131 -1.0652 0.9193
-3.5383 21.2564 -1.0928 0.9173
-4.3535 21.3909 -1.1071 0.9163
-8.6434 21.6440 -1.1819 0.9109
-9.5375 21.6020 -1.1976 0.9098
-12.2702 21.2687 -1.2453 0.9063
-14.1180 20.8622 -1.2775 0.9040
-15.0444 20.6005 -1.2937 0.9029
-5.9262 7.5327 -0.4861 0.9623
-6.7061 6.3849 -0.4696 0.9636
-8.3192 6.3686 -0.5313 0.9589
-8.9702 6.3705 -0.5580 0.9569
-9.6481 6.3446 -0.5856 0.9548
-25.3615 14.1874 -1.4738 0.8901
-27.3749 11.6559 -1.5089 0.8877
-28.5082 9.7926 -1.5287 0.8863
-29.0039 8.8146 -1.5373 0.8857
-34.2534 7.7812 -1.7814 0.8688
-34.6413 6.5740 -1.7882 0.8683
-34.9647 5.3455 -1.7938 0.8679
-35.2215 4.0997 -1.7983 0.8676
-35.4107 2.8405 -1.8016 0.8674
-35.5310 1.5719 -1.8037 0.8672
-35.5821 0.2981 -1.8046 0.8672
-35.5637 -0.9766 -1.8043 0.8672
-12.3105 -2.1231 -0.6335 0.9512
-22.2127 -4.6560 -1.1510 0.9131
-8.2554 -2.0417 -0.4313 0.9665
-16.5868 -4.7388 -0.8748 0.9332
-8.8866 -3.2433 -0.4798 0.9628
-5.3252 -2.1627 -0.2915 0.9772
-31.0414 -13.9223 -1.7253 0.8726
-22.6047 -16.7114 -1.4256 0.8935
-5.3819 -4.6098 -0.3594 0.9720
-20.0290 -18.4397 -1.3807 0.8967
-18.2338 -19.3766 -1.3493 0.8989
-16.4014 -20.1434 -1.3174 0.9012
-15.4773 -20.4644 -1.3012 0.9023
-14.5512 -20.7447 -1.2851 0.9035
-9.9589 -21.5708 -1.2049 0.9092
-9.0603 -21.6285 -1.1892 0.9104
-8.1716 -21.6530 -1.1737 0.9115
-7.2942 -21.6456 -1.1584 0.9126
-6.4292 -21.6077 -1.1433 0.9137
-1.1915 -4.6016 -0.2411 0.9811
2.9211 -2.1263 -0.2649 0.9856
3.0801 -2.0774 -0.2724 0.9852
11.3948 -7.1051 -0.9846 0.9476
0.8805 -0.5062 -0.0745 0.9959
4.3460 -2.0996 -0.3539 0.9808
10.6478 -4.6814 -0.8528 0.9544
5.8118 -2.0726 -0.4524 0.9756
9.7084 -3.0748 -0.7467 0.9600
8.6502 -2.0716 -0.6522 0.9650
12.9517 -1.6611 -0.9574 0.9490
12.9931 -1.1952 -0.9567 0.9490
13.0210 -0.7286 -0.9562 0.9490
12.9574 1.6054 -0.9573 0.9490
12.9041 2.0706 -0.9583 0.9489
12.4341 4.3741 -0.9665 0.9485
12.1508 5.2801 -0.9714 0.9483
11.9887 5.7287 -0.9742 0.9481
11.8128 6.1739 -0.9773 0.9479
11.4200 7.0530 -0.9842 0.9476
11.2030 7.4863 -0.9879 0.9474
10.9721 7.9150 -0.9920 0.9472
10.4104 8.7081 -0.9951 0.9470
9.0385 8.7339 -0.9216 0.9508
8.4221 8.7430 -0.8901 0.9525
0.9347 1.2999 -0.1174 0.9936
0.8632 1.2961 -0.1142 0.9938
0.7691 1.3562 -0.1143 0.9938
0.7321 1.4062 -0.1162 0.9937
5.4823 11.5191 -0.9354 0.9501
3.8929 12.5454 -0.9631 0.9487
3.4675 12.7746 -0.9706 0.9483
3.0312 12.9917 -0.9782 0.9479
2.5843 13.1964 -0.9860 0.9475
2.1269 13.3880 -0.9939 0.9471
0.1993 14.0134 -1.0276 0.9453
-0.3055 14.1317 -1.0364 0.9449
-0.8186 14.2336 -1.0454 0.9444
-1.8678 14.3861 -1.0637 0.9435
-2.4029 14.4357 -1.0730 0.9430
-3.4911 14.4784 -1.0920 0.9420
-4.0429 14.4706 -1.1016 0.9415
-5.1583 14.3939 -1.1211 0.9405
-5.7202 14.3241 -1.1309 0.9400
-7.4128 13.9836 -1.1605 0.9385
-8.5370 13.6439 -1.1801 0.9375
-9.0947 13.4392 -1.1898 0.9370
-5.8972 7.4958 -0.6993 0.9625
-6.2253 6.3676 -0.6529 0.9649
-7.7246 6.3650 -0.7339 0.9607
-8.9882 6.3834 -0.8083 0.9567
-9.6941 6.3749 -0.8507 0.9545
-15.0887 9.1654 -1.2944 0.9316
-19.3733 7.4408 -1.5217 0.9201
-19.7012 6.7674 -1.5274 0.9198
-20.2650 5.3737 -1.5372 0.9194
-20.4987 4.6566 -1.5413 0.9191
-20.6993 3.9281 -1.5448 0.9190
-21.0952 1.6922 -1.5517 0.9186
-21.1570 0.9360 -1.5528 0.9186
-21.1832 0.1775 -1.5533 0.9185
-21.1737 -0.5814 -1.5531 0.9186
-15.2226 -2.0669 -1.1264 0.9402
-12.3770 -2.1346 -0.9209 0.9509
-18.0766 -3.7890 -1.3542 0.9286
-8.2533 -2.0412 -0.6234 0.9665
-16.5791 -4.7366 -1.2643 0.9332
-8.9098 -3.2518 -0.6954 0.9627
-5.3225 -2.1616 -0.4212 0.9772
-18.8143 -8.4384 -1.5119 0.9206
-8.1395 -4.7594 -0.6913 0.9629
-17.0641 -10.8162 -1.4814 0.9222
-6.7475 -4.6239 -0.5998 0.9677
-2.5094 -2.1494 -0.2423 0.9868
-14.3962 -13.2539 -1.4348 0.9245
-13.8135 -13.6635 -1.4246 0.9250
-13.2180 -14.0464 -1.4142 0.9256
-4.0266 -4.5984 -0.4482 0.9758
-11.9943 -14.7309 -1.3929 0.9266
-1.1453 -2.0756 -0.1738 0.9905
-1.0943 -2.1631 -0.1777 0.9903
-7.2437 -15.6897 -1.2671 0.9330
-5.2883 -15.6931 -1.2142 0.9357
-1.1913 -4.6009 -0.3485 0.9811
-3.4688 -15.6939 -1.1785 0.9376
4.4109 -4.6184 -0.6131 0.9747
8.0470 -7.2994 -1.0430 0.9573
8.2721 -6.9800 -1.0391 0.9574
2.7793 -2.1796 -0.3391 0.9859
0.8123 -0.5065 -0.0919 0.9962
0.9673 -0.5108 -0.1050 0.9956
8.6008 -3.4192 -0.8886 0.9635
5.8132 -2.0731 -0.5925 0.9755
8.7906 -2.7841 -0.8853 0.9636
10.3132 -1.7002 -1.0035 0.9589
10.3592 -1.3286 -1.0027 0.9589
10.3939 -0.9561 -1.0021 0.9589
10.4299 0.1645 -1.0014 0.9589
10.3639 1.2841 -1.0026 0.9589
10.2633 2.0264 -1.0044 0.9588
10.1175 2.7631 -1.0069 0.9587
10.0276 3.1287 -1.0085 0.9587
9.9264 3.4920 -1.0102 0.9586
9.8140 3.8528 -1.0122 0.9585
9.2518 5.2657 -1.0220 0.9581
9.0833 5.6099 -1.0249 0.9580
8.9037 5.9498 -1.0281 0.9579
8.5111 6.6159 -1.0349 0.9576
8.2983 6.9414 -1.0387 0.9575
8.0746 7.2614 -1.0426 0.9573
7.8399 7.5757 -1.0467 0.9571
7.5945 7.8838 -1.0509 0.9570
7.0520 8.4572 -1.0572 0.9567
6.7505 8.7122 -1.0581 0.9567
0.9346 1.2999 -0.1537 0.9936
0.8631 1.2960 -0.1495 0.9938
0.7696 1.3570 -0.1498 0.9938
0.7339 1.4095 -0.1526 0.9936
3.9778 9.1929 -0.9616 0.9605
3.6665 9.3822 -0.9671 0.9603
3.0201 9.7329 -0.9784 0.9599
2.6855 9.8936 -0.9842 0.9596
2.3434 10.0440 -0.9902 0.9594
1.2758 10.4301 -1.0088 0.9587
0.9071 10.5359 -1.0152 0.9584
0.5325 10.6297 -1.0218 0.9581
0.1523 10.7110 -1.0284 0.9579
-0.2330 10.7797 -1.0351 0.9576
-1.0176 10.8773 -1.0488 0.9570
-1.4159 10.9057 -1.0558 0.9568
-1.8177 10.9200 -1.0628 0.9565
-2.6296 10.9054 -1.0770 0.9559
-3.0386 10.8758 -1.0841 0.9556
-2.9661 9.3148 -0.9385 0.9615
-5.0909 10.4959 -1.1199 0.9542
-5.9032 10.2324 -1.1341 0.9536
-6.3047 10.0762 -1.1411 0.9534
-7.0947 9.7149 -1.1549 0.9528
-5.8766 7.4697 -0.9125 0.9625
-5.8385 6.4166 -0.8329 0.9657
-6.2647 6.4079 -0.8603 0.9646
-8.4033 6.4329 -1.0160 0.9584
-12.4744 7.5774 -1.4012 0.9430
-13.6206 5.7995 -1.4212 0.9422
-13.8603 5.3234 -1.4254 0.9421
-14.2787 4.3394 -1.4327 0.9418
-14.7452 2.7982 -1.4409 0.9415
-15.0662 0.1262 -1.4465 0.9413
-15.0599 -0.4136 -1.4464 0.9413
-15.0300 -0.9525 -1.4458 0.9413
-14.9765 -1.4894 -1.4449 0.9413
-13.0767 -1.7755 -1.2670 0.9484
-8.2512 -2.0407 -0.8160 0.9664
-8.9178 -3.2547 -0.9114 0.9626
-5.3202 -2.1607 -0.5513 0.9772
-13.4850 -6.0481 -1.4189 0.9423
-9.5273 -4.6900 -1.0195 0.9582
-12.3010 -7.7971 -1.3982 0.9432
-6.7463 -4.6231 -0.7852 0.9677
-11.6101 -8.5832 -1.3862 0.9436
-2.5872 -2.0600 -0.3175 0.9868
-10.4697 -9.6389 -1.3662 0.9444
-10.0654 -9.9561 -1.3592 0.9447
-9.6505 -10.2554 -1.3519 0.9450
-4.0279 -4.6000 -0.5870 0.9757
-8.7930 -10.7992 -1.3370 0.9456
-7.9044 -11.2688 -1.3215 0.9462
-1.2325 -2.0560 -0.2301 0.9904
-1.1451 -2.0753 -0.2276 0.9905
-1.0938 -2.1621 -0.2326 0.9903
-5.5936 -12.1156 -1.2811 0.9478
-5.1229 -12.2292 -1.2729 0.9481
-4.1793 -12.4021 -1.2564 0.9488
-1.1911 -4.6002 -0.4562 0.9811
4.4116 -4.6192 -0.7587 0.9746
6.4557 -6.2919 -1.0708 0.9643
0.7310 -0.6168 -0.1136 0.9962
0.8125 -0.5067 -0.1137 0.9962
0.8804 -0.5061 -0.1206 0.9959
7.0557 -3.1021 -0.9155 0.9694
7.1495 -2.8422 -0.9139 0.9695
7.3804 -2.0497 -0.9099 0.9696
8.5858 -1.4155 -1.0336 0.9656
8.6252 -1.1062 -1.0329 0.9656
8.6550 -0.7961 -1.0324 0.9656
8.6750 -0.4854 -1.0321 0.9656
8.6853 -0.1743 -1.0319 0.9656
8.6859 0.1370 -1.0319 0.9656
8.6293 1.0692 -1.0329 0.9656
1.5895 0.4341 -0.1957 0.9934
8.3411 2.6025 -1.0379 0.9654
8.1583 3.2028 -1.0411 0.9653
1.7654 0.8436 -0.2324 0.9921
1.7155 0.8966 -0.2299 0.9922
1.6520 0.9402 -0.2258 0.9924
1.4723 0.9839 -0.2103 0.9929
6.2727 6.5117 -1.0740 0.9642
1.0749 1.1990 -0.1913 0.9935
0.8892 1.2368 -0.1809 0.9939
0.8461 1.2705 -0.1813 0.9939
0.8059 1.3094 -0.1826 0.9938
0.7714 1.3602 -0.1857 0.9937
4.0173 8.4408 -1.1104 0.9630
3.7207 8.5987 -1.1129 0.9630
2.0368 8.7300 -1.0649 0.9645
1.3877 8.7347 -1.0506 0.9650
-0.5031 8.7480 -1.0409 0.9653
-0.8197 8.7623 -1.0454 0.9652
-1.1391 8.7739 -1.0510 0.9650
-1.7833 8.7625 -1.0622 0.9646
-2.1093 8.7480 -1.0689 0.9644
-3.4895 8.7381 -1.1177 0.9628
-3.8571 8.7362 -1.1344 0.9623
-4.2363 8.7339 -1.1531 0.9617
-4.6285 8.7313 -1.1739 0.9610
-5.0355 8.7284 -1.1970 0.9602
-5.4592 8.7250 -1.2226 0.9594
-7.4413 8.1780 -1.3134 0.9564
-6.2576 6.4007 -1.0633 0.9646
-6.7042 6.3830 -1.0996 0.9634
-8.3788 7.4237 -1.3298 0.9559
-8.6728 7.1463 -1.3349 0.9557
-9.4897 6.2405 -1.3491 0.9553
-9.9744 5.5797 -1.3576 0.9550
-10.1970 5.2337 -1.3615 0.9549
-10.4057 4.8781 -1.3651 0.9548
-10.7795 4.1402 -1.3717 0.9546
-10.9438 3.7592 -1.3745 0.9545
-11.3408 2.5762 -1.3815 0.9542
-11.4402 2.1710 -1.3832 0.9542
-11.5226 1.7616 -1.3846 0.9541
-11.6357 0.9334 -1.3866 0.9541
-11.6744 -0.3206 -1.3873 0.9540
-11.6124 -1.1548 -1.3862 0.9541
-11.5552 -1.5689 -1.3852 0.9541
-10.1941 -1.7581 -1.2288 0.9592
-9.9959 -2.0952 -1.2132 0.9597
-8.2491 -2.0401 -1.0094 0.9663
-5.3183 -2.1599 -0.6818 0.9771
-9.6076 -6.0899 -1.3512 0.9552
-9.0851 -6.7165 -1.3421 0.9555
-7.5925 -8.0683 -1.3160 0.9564
-4.0293 -4.6015 -0.7265 0.9757
-6.5945 -8.7194 -1.2986 0.9569
-6.2488 -8.9084 -1.2926 0.9571
-5.8975 -9.0833 -1.2864 0.9573
-1.2328 -2.0565 -0.2848 0.9904
-1.1449 -2.0750 -0.2815 0.9905
-1.0933 -2.1610 -0.2877 0.9903
-4.4504 -9.6395 -1.2612 0.9581
-4.0813 -9.7427 -1.2547 0.9583
-3.7104 -9.8317 -1.2483 0.9586
-3.3383 -9.9065 -1.2418 0.9588
-2.9657 -9.9672 -1.2353 0.9590
-1.1909 -4.5995 -0.5644 0.9810
-2.2207 -10.0471 -1.2223 0.9594
4.5016 -5.0649 -0.9601 0.9730
4.4123 -4.6199 -0.9052 0.9745
4.9758 -4.5134 -0.9518 0.9732
0.7924 -0.5344 -0.1354 0.9961
0.8804 -0.5061 -0.1439 0.9959
0.9672 -0.5108 -0.1550 0.9956
4.3508 -2.1020 -0.6846 0.9807
6.1125 -2.4300 -0.9320 0.9738
5.8158 -2.0740 -0.8749 0.9754
6.3436 -1.7617 -0.9328 0.9738
7.4263 -0.4155 -1.0539 0.9704
7.4353 -0.1492 -1.0537 0.9704
7.4358 0.1173 -1.0537 0.9704
7.3864 0.9152 -1.0546 0.9704
7.2606 1.7059 -1.0568 0.9703
7.2018 1.9668 -1.0578 0.9703
7.0591 2.4833 -1.0603 0.9702
6.9752 2.7384 -1.0617 0.9702
6.8830 2.9910 -1.0634 0.9701
6.7826 3.2410 -1.0651 0.9701
5.6896 5.1166 -1.0842 0.9696
5.5178 5.3319 -1.0872 0.9695
5.3386 5.5420 -1.0903 0.9694
5.1520 5.7468 -1.0936 0.9693
4.9581 5.9461 -1.0970 0.9692
4.5490 6.3267 -1.1041 0.9690
4.1125 6.6820 -1.1117 0.9688
3.6498 7.0099 -1.1198 0.9686
2.6517 7.5754 -1.1372 0.9681
2.3883 7.6965 -1.1418 0.9680
0.9992 8.1688 -1.1661 0.9673
0.4152 8.2886 -1.1759 0.9670
0.1185 8.3298 -1.1804 0.9669
-0.7856 8.3972 -1.1950 0.9665
-1.3972 8.3941 -1.2057 0.9662
-2.0137 8.3513 -1.2172 0.9659
-2.3230 8.3148 -1.2232 0.9657
-2.6327 8.2679 -1.2294 0.9656
-3.5503 8.0413 -1.2455 0.9651
-4.1517 7.8319 -1.2560 0.9648
-4.4478 7.7097 -1.2611 0.9647
-4.7403 7.5760 -1.2662 0.9645
-5.0285 7.4307 -1.2713 0.9644
-5.5905 7.1060 -1.2811 0.9641
-6.1297 6.7365 -1.2905 0.9639
-6.3894 6.5355 -1.2950 0.9637
-6.6420 6.3239 -1.2994 0.9636
-7.1236 5.8697 -1.3078 0.9634
-7.5705 5.3765 -1.3156 0.9632
-7.7798 5.1160 -1.3193 0.9631
-7.9790 4.8467 -1.3228 0.9630
-8.5125 3.9906 -1.3321 0.9627
-8.6676 3.6905 -1.3348 0.9627
-9.0597 2.7533 -1.3416 0.9625
-9.1651 2.4303 -1.3435 0.9624
-9.3363 1.7718 -1.3465 0.9623
-9.4018 1.4374 -1.3476 0.9623
-9.4536 1.1004 -1.3485 0.9623
-9.5157 0.4210 -1.3496 0.9623
-9.5222 -0.2615 -1.3497 0.9622
-9.4731 -0.9421 -1.3489 0.9623
-9.4277 -1.2801 -1.3481 0.9623
-8.0830 -1.9991 -1.1798 0.9669
-5.3163 -2.1591 -0.8130 0.9771
-3.9286 -2.1121 -0.6320 0.9821
-6.5430 -4.8371 -1.1529 0.9677
-2.5065 -2.1469 -0.4676 0.9868
-6.7575 -6.2213 -1.3015 0.9636
-6.5085 -6.4378 -1.2971 0.9637
-6.2520 -6.6439 -1.2926 0.9638
-5.4430 -7.1968 -1.2785 0.9642
-1.0927 -2.1600 -0.3430 0.9903
-3.0833 -8.1702 -1.2373 0.9653
-2.7766 -8.2396 -1.2320 0.9655
-1.1908 -4.5988 -0.6731 0.9810
3.9132 -4.4028 -0.9704 0.9764
4.1969 -4.0903 -0.9654 0.9765
4.3302 -3.9279 -0.9631 0.9766
0.8804 -0.5061 -0.1673 0.9959
0.9402 -0.4965 -0.1752 0.9957
0.9559 -0.4618 -0.1749 0.9957
0.9704 -0.4267 -0.1746 0.9957
6.2465 -1.7348 -1.0680 0.9741
6.3339 -1.5169 -1.0729 0.9739
6.4175 -1.0580 -1.0715 0.9740
6.4481 -0.8270 -1.0709 0.9740
6.4711 -0.5952 -1.0705 0.9740
6.4946 -0.1303 -1.0701 0.9740
6.4951 0.1024 -1.0701 0.9740
6.4880 0.3351 -1.0703 0.9740
6.4734 0.5675 -1.0705 0.9740
6.4512 0.7993 -1.0709 0.9740
6.4215 1.0304 -1.0714 0.9740
6.3844 1.2605 -1.0721 0.9740
6.3397 1.4895 -1.0728 0.9739
6.2876 1.7172 -1.0737 0.9739
6.0869 2.3896 -1.0773 0.9738
6.0053 2.6096 -1.0787 0.9738
5.9164 2.8271 -1.0802 0.9738
5.8204 3.0420 -1.0819 0.9737
5.6069 3.4628 -1.0856 0.9736
5.3653 3.8704 -1.0898 0.9735
5.2342 4.0686 -1.0921 0.9735
5.0962 4.2629 -1.0945 0.9734
4.9516 4.4530 -1.0971 0.9734
4.3084 5.1670 -1.1083 0.9731
3.9496 5.4931 -1.1146 0.9729
3.7613 5.6476 -1.1178 0.9729
3.1630 6.0748 -1.1283 0.9726
2.9529 6.2044 -1.1320 0.9725
2.7378 6.3271 -1.1357 0.9724
2.5178 6.4428 -1.1395 0.9723
1.8311 6.7460 -1.1515 0.9721
1.5939 6.8317 -1.1557 0.9720
1.3531 6.9095 -1.1599 0.9719
0.1020 7.1725 -1.1817 0.9713
-0.1556 7.1989 -1.1862 0.9712
-0.4150 7.2161 -1.1907 0.9711
-1.7269 7.1618 -1.2136 0.9706
-1.9899 7.1222 -1.2182 0.9705
-2.2522 7.0728 -1.2228 0.9704
-2.7733 6.9446 -1.2319 0.9701
-3.2872 6.7772 -1.2409 0.9699
-3.5405 6.6788 -1.2453 0.9698
-3.7907 6.5707 -1.2497 0.9697
-4.0375 6.4528 -1.2540 0.9696
-4.7535 6.0420 -1.2665 0.9693
-4.9825 5.8864 -1.2705 0.9692
-5.6354 5.3655 -1.2819 0.9689
-5.8403 5.1746 -1.2854 0.9689
-6.0381 4.9753 -1.2889 0.9688
-6.4111 4.5531 -1.2954 0.9686
-6.5855 4.3306 -1.2984 0.9686
-6.7515 4.1011 -1.3013 0.9685
-7.0565 3.6219 -1.3067 0.9684
-7.1951 3.3730 -1.3091 0.9683
-7.4426 2.8585 -1.3134 0.9682
-7.7364 2.0515 -1.3185 0.9681
-7.8782 1.4951 -1.3210 0.9680
-7.9324 1.2127 -1.3220 0.9680
-8.0067 0.6423 -1.3233 0.9680
-8.0267 0.3551 -1.3236 0.9680
-8.0321 -0.2206 -1.3237 0.9680
-8.0175 -0.5081 -1.3234 0.9680
-7.9914 -0.7947 -1.3230 0.9680
-7.9538 -1.0800 -1.3223 0.9680
-7.9049 -1.3633 -1.3215 0.9680
-7.8448 -1.6443 -1.3204 0.9680
-7.0877 -1.7529 -1.2028 0.9708
-5.3143 -2.1583 -0.9449 0.9770
-2.5055 -2.1461 -0.5435 0.9867
-5.0308 -4.6316 -1.1265 0.9727
-4.8478 -4.7952 -1.1233 0.9727
-4.6592 -4.9512 -1.1200 0.9728
-4.0320 -4.6046 -1.0083 0.9755
-4.8612 -5.9704 -1.2684 0.9693
-4.3928 -6.2625 -1.2602 0.9695
-4.1517 -6.3944 -1.2560 0.9696
-1.1446 -2.0744 -0.3903 0.9904
-3.1513 -6.8256 -1.2385 0.9700
-2.3745 -7.0463 -1.2249 0.9703
-2.1126 -7.1003 -1.2204 0.9704
3.7107 -3.6165 -0.9739 0.9791
0.7162 -0.6496 -0.1817 0.9961
0.7358 -0.6209 -0.1810 0.9961
0.7554 -0.5924 -0.1804 0.9961
0.7748 -0.5640 -0.1801 0.9961
0.7942 -0.5357 -0.1801 0.9961
0.8135 -0.5073 -0.1802 0.9961
5.5686 -1.5465 -1.0863 0.9768
5.6162 -1.3450 -1.0855 0.9768
5.6570 -1.1422 -1.0848 0.9768
5.6912 -0.9383 -1.0842 0.9768
5.7393 -0.5279 -1.0833 0.9768
5.7532 -0.3219 -1.0831 0.9768
5.7604 -0.1156 -1.0829 0.9768
5.7608 0.0909 -1.0829 0.9768
5.6948 0.9138 -1.0841 0.9768
5.6615 1.1178 -1.0847 0.9768
5.6214 1.3208 -1.0854 0.9768
5.5213 1.7227 -1.0871 0.9767
5.4613 1.9212 -1.0882 0.9767
5.3947 2.1179 -1.0893 0.9767
5.3216 2.3125 -1.0906 0.9767
5.1560 2.6947 -1.0935 0.9766
5.0636 2.8820 -1.0951 0.9766
1.8367 1.3249 -0.4257 0.9908
4.6317 3.6003 -1.1027 0.9764
4.5085 3.7713 -1.1048 0.9764
4.3794 3.9384 -1.1071 0.9763
4.2445 4.1014 -1.1094 0.9763
3.8060 4.5644 -1.1171 0.9761
3.3194 4.9841 -1.1256 0.9759
3.1471 5.1134 -1.1286 0.9759
2.9700 5.2372 -1.1317 0.9758
2.6021 5.4673 -1.1381 0.9757
1.8161 5.8526 -1.1518 0.9754
1.4011 6.0051 -1.1590 0.9752
1.1889 6.0708 -1.1627 0.9751
0.9737 6.1292 -1.1665 0.9751
0.5358 6.2237 -1.1741 0.9749
0.3136 6.2596 -1.1780 0.9748
0.0894 6.2876 -1.1819 0.9747
-0.1364 6.3077 -1.1859 0.9746
-0.3634 6.3198 -1.1898 0.9746
-0.5916 6.3238 -1.1938 0.9745
-1.0499 6.3072 -1.2018 0.9743
-1.7377 6.2197 -1.2138 0.9741
-1.9659 6.1736 -1.2178 0.9740
-2.8639 5.9046 -1.2335 0.9736
-3.0832 5.8162 -1.2373 0.9736
-3.5129 5.6143 -1.2448 0.9734
-4.5201 4.9676 -1.2624 0.9730
-4.7073 4.8149 -1.2657 0.9730
-5.0648 4.4875 -1.2719 0.9728
-5.8454 3.5507 -1.2855 0.9725
-6.1062 3.1341 -1.2901 0.9725
-6.3345 2.6971 -1.2941 0.9724
-6.4358 2.4719 -1.2958 0.9723
-6.6119 2.0094 -1.2989 0.9723
-6.6864 1.7730 -1.3002 0.9722
-6.8072 1.2918 -1.3023 0.9722
-6.8898 0.8020 -1.3038 0.9722
-6.9408 0.0582 -1.3047 0.9721
-6.9258 -0.4389 -1.3044 0.9722
-6.9036 -0.6865 -1.3040 0.9722
-6.8716 -0.9330 -1.3034 0.9722
-6.8299 -1.1779 -1.3027 0.9722
-6.7787 -1.4209 -1.3018 0.9722
-6.7180 -1.6615 -1.3008 0.9722
-6.1279 -1.7507 -1.1979 0.9744
-5.3123 -2.1575 -1.0777 0.9769
-5.5090 -2.4708 -1.1349 0.9757
-3.9257 -2.1105 -0.8378 0.9820
-5.1862 -3.0325 -1.1292 0.9758
-5.0647 -3.2103 -1.1271 0.9759
-4.9367 -3.3830 -1.1249 0.9759
-2.5854 -2.0586 -0.6212 0.9866
-4.2066 -4.1609 -1.1121 0.9762
-2.0698 -2.1995 -0.5677 0.9878
-3.7065 -4.5522 -1.1034 0.9764
-3.5313 -4.6691 -1.1003 0.9765
-1.2338 -2.0581 -0.4510 0.9903
-1.0917 -2.1579 -0.4545 0.9902
-1.0013 -2.1687 -0.4490 0.9903
-2.5234 -6.0237 -1.2275 0.9738
-2.0722 -6.1492 -1.2197 0.9739
-1.8445 -6.1992 -1.2157 0.9740
-1.1906 -4.5983 -0.8928 0.9809
3.2108 -3.3618 -0.9827 0.9812
3.3225 -3.2382 -0.9807 0.9812
0.7179 -0.6512 -0.2049 0.9960
0.7565 -0.5932 -0.2032 0.9961
0.7756 -0.5645 -0.2028 0.9961
0.7946 -0.5360 -0.2026 0.9961
4.1822 -1.8387 -0.9657 0.9815
4.4090 -1.7528 -1.0029 0.9808
4.8647 -1.7348 -1.0917 0.9791
4.9481 -1.5671 -1.0971 0.9790
4.9971 -1.3878 -1.0963 0.9790
5.0402 -1.2070 -1.0955 0.9790
5.1082 -0.8421 -1.0943 0.9791
5.1330 -0.6583 -1.0939 0.9791
5.1518 -0.4739 -1.0936 0.9791
5.1644 -0.2890 -1.0934 0.9791
5.1713 0.0816 -1.0932 0.9791
5.1536 0.4518 -1.0935 0.9791
5.1356 0.6363 -1.0939 0.9791
5.0812 1.0033 -1.0948 0.9790
5.0450 1.1853 -1.0954 0.9790
4.7735 2.0743 -1.1002 0.9789
2.0284 1.0601 -0.4838 0.9907
1.9421 1.1054 -0.4724 0.9909
1.7898 1.1054 -0.4447 0.9914
1.6933 1.1315 -0.4305 0.9917
1.6706 1.2051 -0.4354 0.9916
1.6461 1.2796 -0.4407 0.9915
3.9223 3.5273 -1.1150 0.9787
3.8006 3.6725 -1.1172 0.9786
3.4055 4.0841 -1.1241 0.9785
2.3236 4.8823 -1.1429 0.9781
2.1529 4.9753 -1.1459 0.9781
1.4356 5.2890 -1.1584 0.9778
1.2487 5.3521 -1.1617 0.9778
0.8672 5.4588 -1.1684 0.9777
0.6731 5.5023 -1.1718 0.9776
0.4769 5.5390 -1.1752 0.9775
0.0795 5.5918 -1.1821 0.9774
-0.1212 5.6076 -1.1856 0.9773
-2.1420 5.3639 -1.2209 0.9767
-2.7278 5.1459 -1.2311 0.9765
-2.9183 5.0585 -1.2344 0.9764
-3.4711 4.7530 -1.2441 0.9762
-4.4667 3.9576 -1.2615 0.9759
-4.8944 3.4759 -1.2689 0.9758
-5.3761 2.7593 -1.2773 0.9756
-5.4792 2.5686 -1.2791 0.9756
-5.5750 2.3737 -1.2808 0.9755
-5.6632 2.1751 -1.2824 0.9755
-5.8165 1.7677 -1.2850 0.9755
-5.9864 1.1361 -1.2880 0.9754
-6.0265 0.9214 -1.2887 0.9754
-6.0583 0.7052 -1.2892 0.9754
-6.0816 0.4878 -1.2897 0.9754
-6.0964 0.2697 -1.2899 0.9754
-6.0896 -0.3859 -1.2898 0.9754
-6.0702 -0.6037 -1.2895 0.9754
-6.0062 -1.0359 -1.2883 0.9754
-5.9616 -1.2496 -1.2876 0.9754
-5.9088 -1.4613 -1.2866 0.9754
-5.8478 -1.6707 -1.2856 0.9754
-5.0042 -1.8264 -1.1260 0.9785
-4.9299 -2.0022 -1.1247 0.9785
-4.7614 -2.3439 -1.1218 0.9785
-4.5675 -2.6707 -1.1184 0.9786
-4.4615 -2.8280 -1.1166 0.9786
-4.3497 -2.9808 -1.1146 0.9787
-4.2324 -3.1289 -1.1126 0.9787
-2.5035 -2.1444 -0.6968 0.9866
-3.8489 -3.5435 -1.1059 0.9788
-3.7114 -3.6711 -1.1035 0.9789
-3.4234 -3.9096 -1.0985 0.9790
-3.2733 -4.0201 -1.0958 0.9790
-2.9623 -4.2231 -1.0904 0.9791
-1.2341 -2.0586 -0.5073 0.9902
-1.1442 -2.0737 -0.5006 0.9904
-1.0911 -2.1568 -0.5109 0.9902
-2.1336 -4.6213 -1.0759 0.9794
-1.7871 -4.7355 -1.0699 0.9795
-1.4352 -4.8234 -1.0637 0.9796
3.1028 -2.8145 -0.9845 0.9829
3.1963 -2.6970 -0.9829 0.9830
3.2857 -2.5767 -0.9813 0.9830
2.9289 -2.1320 -0.8514 0.9852
3.5998 -2.0693 -0.9759 0.9831
3.7300 -1.8020 -0.9736 0.9831
1.7214 -0.5452 -0.4244 0.9926
1.7312 -0.4808 -0.4223 0.9926
1.7396 -0.4166 -0.4204 0.9927
1.7469 -0.3527 -0.4188 0.9927
1.9078 -0.3145 -0.4544 0.9921
2.0247 -0.2597 -0.4797 0.9916
4.6692 -0.4295 -1.1020 0.9809
4.6867 -0.0940 -1.1017 0.9809
4.6870 0.0739 -1.1017 0.9809
4.6709 0.4095 -1.1020 0.9809
4.6048 0.9092 -1.1031 0.9809
4.5330 1.2380 -1.1044 0.9809
4.4393 1.5617 -1.1060 0.9808
4.3239 1.8790 -1.1080 0.9808
1.9421 1.1054 -0.5252 0.9909
1.7898 1.1054 -0.4944 0.9914
1.6542 1.1054 -0.4676 0.9919
1.6013 1.1551 -0.4640 0.9919
3.2026 3.5724 -1.1276 0.9805
3.0785 3.6919 -1.1298 0.9804
2.3963 4.2255 -1.1417 0.9802
2.2484 4.3184 -1.1443 0.9802
2.0971 4.4063 -1.1469 0.9801
1.9425 4.4892 -1.1496 0.9801
1.7847 4.5668 -1.1523 0.9801
1.4602 4.7059 -1.1580 0.9800
1.1252 4.8226 -1.1639 0.9799
0.9541 4.8723 -1.1668 0.9798
0.7810 4.9160 -1.1699 0.9798
0.6060 4.9537 -1.1729 0.9797
0.4292 4.9853 -1.1760 0.9796
-1.3826 4.9488 -1.2076 0.9791
-1.5631 4.9089 -1.2108 0.9791
-2.2712 4.6826 -1.2231 0.9788
-2.4435 4.6095 -1.2262 0.9788
-2.6134 4.5300 -1.2291 0.9787
-3.2635 4.1482 -1.2405 0.9785
-3.4174 4.0373 -1.2431 0.9785
-4.2491 3.2528 -1.2577 0.9783
-4.3703 3.1037 -1.2598 0.9782
-4.5956 2.7915 -1.2637 0.9781
-4.8882 2.2916 -1.2688 0.9781
-5.0511 1.9400 -1.2717 0.9780
-5.1866 1.5763 -1.2740 0.9780
-5.2439 1.3905 -1.2750 0.9780
-5.2940 1.2026 -1.2759 0.9779
-5.3722 0.8213 -1.2773 0.9779
-5.4003 0.6286 -1.2778 0.9779
-5.4209 0.4348 -1.2781 0.9779
-5.4339 0.2404 -1.2783 0.9779
-5.4375 -0.1493 -1.2784 0.9779
-5.4279 -0.3440 -1.2782 0.9779
-5.3543 -0.9234 -1.2770 0.9779
-5.3149 -1.1141 -1.2763 0.9779
-5.2682 -1.3029 -1.2755 0.9779
-5.2143 -1.4897 -1.2745 0.9780
-5.1533 -1.6742 -1.2734 0.9780
-4.7853 -1.7465 -1.1972 0.9793
-4.3973 -1.7859 -1.1155 0.9807
-4.3257 -1.9401 -1.1142 0.9807
-4.2482 -2.0913 -1.1128 0.9807
-3.9827 -2.5244 -1.1082 0.9808
-3.8836 -2.6613 -1.1065 0.9808
-3.7795 -2.7942 -1.1047 0.9809
-3.4394 -3.1664 -1.0987 0.9810
-3.3173 -3.2812 -1.0966 0.9810
-3.1912 -3.3912 -1.0944 0.9810
-2.9278 -3.5958 -1.0898 0.9811
-2.5081 -3.8630 -1.0825 0.9813
-1.2344 -2.0592 -0.5642 0.9902
-1.1440 -2.0734 -0.5566 0.9903
-1.0906 -2.1557 -0.5678 0.9901
-1.6025 -4.2462 -1.0667 0.9815
-1.2877 -4.3277 -1.0612 0.9816
2.9158 -2.4603 -0.9878 0.9844
2.9977 -2.3509 -0.9864 0.9844
3.0615 -2.0649 -0.9561 0.9849
3.3478 -1.7680 -0.9803 0.9845
3.6188 -1.7483 -1.0406 0.9835
3.9412 -1.7328 -1.1147 0.9824
1.6331 -0.5172 -0.4435 0.9929
1.6428 -0.4562 -0.4414 0.9930
1.6512 -0.3954 -0.4396 0.9930
1.6584 -0.3348 -0.4381 0.9930
1.9078 -0.3145 -0.5006 0.9920
2.0837 -0.2672 -0.5439 0.9914
4.2654 -0.3923 -1.1090 0.9825
4.2815 -0.0859 -1.1088 0.9825
4.2818 0.0675 -1.1088 0.9825
4.2769 0.2209 -1.1088 0.9825
4.2669 0.3740 -1.1090 0.9825
4.2518 0.5268 -1.1093 0.9825
4.2062 0.8305 -1.1101 0.9824
4.1757 0.9811 -1.1106 0.9824
4.1402 1.1307 -1.1112 0.9824
4.0997 1.2791 -1.1119 0.9824
4.0541 1.4262 -1.1127 0.9824
4.0036 1.5717 -1.1136 0.9824
3.9481 1.7157 -1.1146 0.9824
3.8878 1.8577 -1.1156 0.9824
1.7898 1.1054 -0.5447 0.9913
1.6542 1.1054 -0.5151 0.9918
1.5547 1.1215 -0.4964 0.9921
1.5415 1.1983 -0.5055 0.9920
1.5271 1.2774 -0.5155 0.9918
3.2365 2.9106 -1.1270 0.9822
3.1351 3.0294 -1.1288 0.9821
2.6886 3.4700 -1.1366 0.9820
2.4425 3.6674 -1.1409 0.9820
1.9090 4.0111 -1.1502 0.9818
1.7679 4.0857 -1.1526 0.9818
1.6239 4.1554 -1.1552 0.9817
1.4773 4.2203 -1.1577 0.9817
1.3281 4.2801 -1.1603 0.9817
1.1766 4.3348 -1.1630 0.9816
0.5505 4.5003 -1.1739 0.9814
0.3898 4.5279 -1.1767 0.9814
0.2279 4.5499 -1.1795 0.9814
0.0649 4.5661 -1.1824 0.9813
-0.2635 4.5811 -1.1881 0.9812
-0.5937 4.5726 -1.1939 0.9811
-0.7589 4.5594 -1.1967 0.9811
-1.4159 4.4464 -1.2082 0.9809
-1.8979 4.2986 -1.2166 0.9808
-2.3638 4.0973 -1.2248 0.9806
-2.5145 4.0186 -1.2274 0.9806
-2.6624 3.9342 -1.2300 0.9806
-2.8074 3.8442 -1.2325 0.9805
-3.0877 3.6478 -1.2374 0.9804
-3.4804 3.3137 -1.2442 0.9803
-3.7213 3.0663 -1.2485 0.9803
-4.0471 2.6614 -1.2541 0.9802
-4.3260 2.2204 -1.2590 0.9801
-4.4078 2.0663 -1.2604 0.9801
-4.4837 1.9091 -1.2618 0.9801
-4.5536 1.7489 -1.2630 0.9800
-4.6174 1.5861 -1.2641 0.9800
-4.6750 1.4208 -1.2651 0.9800
-4.7710 1.0838 -1.2668 0.9800
-4.8093 0.9127 -1.2674 0.9800
-4.8845 0.3918 -1.2688 0.9800
-4.8908 -0.3099 -1.2689 0.9800
-4.7480 -1.1742 -1.2664 0.9800
-4.6997 -1.3427 -1.2655 0.9800
-4.6451 -1.5091 -1.2646 0.9800
-3.9245 -1.7602 -1.1136 0.9824
-3.8309 -1.8859 -1.1056 0.9825
-3.6771 -2.1501 -1.1029 0.9826
-3.5041 -2.4013 -1.0999 0.9826
-3.4108 -2.5215 -1.0982 0.9826
-2.5015 -2.1427 -0.8528 0.9865
-3.1054 -2.8590 -1.0929 0.9827
-2.9957 -2.9632 -1.0910 0.9827
-2.6456 -3.2492 -1.0849 0.9828
-2.3965 -3.4165 -1.0805 0.9829
-2.2678 -3.4929 -1.0783 0.9829
-1.2347 -2.0597 -0.6218 0.9901
-1.0900 -2.1546 -0.6252 0.9901
-1.7305 -3.7482 -1.0689 0.9831
-1.5915 -3.7991 -1.0665 0.9831
-1.0229 -3.9504 -1.0566 0.9833
2.4306 -2.5450 -0.9963 0.9855
2.6780 -2.2597 -0.9920 0.9855
2.7536 -2.1594 -0.9906 0.9856
2.8256 -2.0568 -0.9894 0.9856
2.8940 -1.9519 -0.9882 0.9856
2.9586 -1.8448 -0.9871 0.9856
3.5663 -1.7230 -1.1212 0.9837
3.6226 -1.5927 -1.1203 0.9837
3.7216 -1.3272 -1.1185 0.9837
1.6029 -0.3236 -0.4629 0.9932
2.1289 -0.2730 -0.6076 0.9911
3.9222 -0.3608 -1.1150 0.9838
3.9371 -0.0790 -1.1148 0.9838
3.9373 0.0621 -1.1148 0.9838
3.9329 0.2031 -1.1149 0.9838
3.9236 0.3439 -1.1150 0.9838
3.8909 0.6243 -1.1156 0.9838
3.7690 1.1760 -1.1177 0.9837
3.7269 1.3111 -1.1184 0.9837
3.6802 1.4448 -1.1193 0.9837
1.9421 1.1054 -0.6326 0.9908
1.6542 1.1054 -0.5632 0.9918
1.5034 1.1686 -0.5391 0.9921
1.4952 1.2507 -0.5518 0.9919
2.8787 2.7817 -1.1333 0.9835
2.7814 2.8874 -1.1349 0.9835
2.6803 2.9898 -1.1367 0.9834
2.4674 3.1844 -1.1404 0.9834
1.7502 3.6774 -1.1529 0.9832
1.6205 3.7451 -1.1552 0.9832
1.3536 3.8671 -1.1599 0.9831
1.2167 3.9211 -1.1623 0.9831
1.0777 3.9705 -1.1647 0.9830
0.9368 4.0150 -1.1671 0.9830
0.7940 4.0546 -1.1696 0.9830
0.2085 4.1625 -1.1799 0.9828
0.0594 4.1765 -1.1825 0.9828
-0.2409 4.1885 -1.1877 0.9827
-0.5426 4.1790 -1.1930 0.9826
-0.8441 4.1476 -1.1982 0.9826
-0.9943 4.1237 -1.2009 0.9825
-1.1439 4.0943 -1.2035 0.9825
-1.2926 4.0595 -1.2061 0.9824
-1.4403 4.0191 -1.2086 0.9824
-2.1555 3.7363 -1.2211 0.9822
-2.4269 3.5862 -1.2259 0.9822
-2.5586 3.5035 -1.2282 0.9821
-1.1135 1.3154 -0.4879 0.9929
-1.1459 1.2594 -0.4820 0.9929
-1.1766 1.2035 -0.4765 0.9930
-1.3415 1.1054 -0.4921 0.9928
-1.4884 1.1394 -0.5306 0.9922
-3.6827 2.4218 -1.2478 0.9818
-3.8560 2.1571 -1.2508 0.9818
-3.9352 2.0198 -1.2522 0.9818
-4.0778 1.7363 -1.2547 0.9817
-4.1410 1.5905 -1.2558 0.9817
-4.1987 1.4422 -1.2568 0.9817
-4.2970 1.1395 -1.2585 0.9817
-4.4008 0.6728 -1.2603 0.9817
-4.4401 0.3562 -1.2610 0.9817
-4.4535 -0.1223 -1.2612 0.9816
-4.4458 -0.2817 -1.2611 0.9817
-4.4320 -0.4407 -1.2609 0.9817
-4.3545 -0.9127 -1.2595 0.9817
-4.3167 -1.0676 -1.2588 0.9817
-4.2731 -1.2208 -1.2581 0.9817
-4.2237 -1.3722 -1.2572 0.9817
-4.1687 -1.5214 -1.2563 0.9817
-4.1080 -1.6684 -1.2552 0.9817
-3.8842 -1.7421 -1.2051 0.9825
-3.4173 -1.8371 -1.0983 0.9840
-3.3454 -1.9562 -1.0971 0.9840
-3.2692 -2.0722 -1.0958 0.9840
-3.1043 -2.2950 -1.0929 0.9841
-2.5005 -2.1418 -0.9321 0.9864
-2.8276 -2.6032 -1.0881 0.9841
-2.6254 -2.7899 -1.0845 0.9842
-2.5195 -2.8773 -1.0827 0.9842
-2.4105 -2.9605 -1.0808 0.9843
-2.2988 -3.0394 -1.0788 0.9843
-1.2350 -2.0602 -0.6800 0.9901
-1.0895 -2.1535 -0.6832 0.9900
-1.0651 -3.5797 -1.0573 0.9846
-0.9341 -3.6077 -1.0550 0.9846
-0.8026 -3.6309 -1.0527 0.9847
2.2444 -2.3500 -0.9995 0.9865
2.4737 -2.0873 -0.9955 0.9865
2.5437 -1.9949 -0.9943 0.9866
2.8141 -1.7547 -1.0200 0.9862
3.2399 -1.7110 -1.1269 0.9848
3.3484 -1.4722 -1.1251 0.9848
3.3965 -1.3503 -1.1242 0.9848
1.5496 -0.4908 -0.4999 0.9932
1.5632 -0.3156 -0.4905 0.9933
1.9078 -0.3145 -0.5947 0.9919
3.6267 -0.3336 -1.1202 0.9849
3.6358 -0.2034 -1.1200 0.9849
3.6366 0.1878 -1.1200 0.9849
3.6280 0.3180 -1.1202 0.9849
3.6150 0.4479 -1.1204 0.9849
3.5976 0.5773 -1.1207 0.9849
3.4453 1.2120 -1.1234 0.9848
3.4020 1.3356 -1.1241 0.9848
3.3544 1.4577 -1.1249 0.9848
3.3027 1.5782 -1.1258 0.9848
2.1150 1.1054 -0.7340 0.9901
1.7898 1.1054 -0.6470 0.9912
1.6542 1.1054 -0.6119 0.9917
1.5323 1.1054 -0.5811 0.9921
1.4794 1.1500 -0.5763 0.9922
1.4613 1.3141 -0.6045 0.9918
2.5683 2.6662 -1.1387 0.9846
2.4747 2.7605 -1.1403 0.9846
2.0679 3.1049 -1.1474 0.9845
1.8464 3.2559 -1.1513 0.9845
1.6142 3.3916 -1.1553 0.9844
1.4944 3.4535 -1.1574 0.9844
1.3722 3.5113 -1.1595 0.9843
1.2479 3.5649 -1.1617 0.9843
1.1215 3.6141 -1.1639 0.9843
0.8631 3.6995 -1.1684 0.9842
0.7315 3.7353 -1.1707 0.9842
0.5984 3.7666 -1.1731 0.9842
0.4640 3.7932 -1.1754 0.9841
0.3285 3.8150 -1.1778 0.9841
0.1920 3.8321 -1.1801 0.9841
-0.4991 3.8439 -1.1922 0.9839
-0.7762 3.8137 -1.1970 0.9838
-0.9141 3.7910 -1.1995 0.9838
-1.1879 3.7306 -1.2042 0.9837
-1.7219 3.5500 -1.2136 0.9836
-1.9789 3.4302 -1.2180 0.9836
-1.0469 1.3307 -0.5208 0.9929
-3.3750 2.2194 -1.2424 0.9832
-3.4563 2.0995 -1.2438 0.9832
-3.6052 1.8504 -1.2464 0.9832
-3.6727 1.7217 -1.2476 0.9832
-3.7929 1.4568 -1.2497 0.9831
-3.8455 1.3209 -1.2506 0.9831
-3.8929 1.1831 -1.2514 0.9831
-3.9351 1.0435 -1.2522 0.9831
-3.9720 0.9023 -1.2528 0.9831
-4.0035 0.7598 -1.2534 0.9831
-4.0297 0.6161 -1.2538 0.9831
-4.0655 0.3261 -1.2545 0.9831
-4.0751 0.1803 -1.2546 0.9831
-4.0164 -0.6927 -1.2536 0.9831
-3.9530 -0.9776 -1.2525 0.9831
-3.9133 -1.1180 -1.2518 0.9831
-3.8181 -1.3935 -1.2501 0.9831
-3.7026 -1.6606 -1.2481 0.9832
-3.5342 -1.7398 -1.2116 0.9836
-3.0654 -1.7924 -1.0922 0.9852
-2.9959 -1.8990 -1.0910 0.9853
-2.8454 -2.1035 -1.0884 0.9853
-2.5018 -2.4747 -1.0824 0.9854
-2.4079 -2.5588 -1.0807 0.9854
-2.3111 -2.6393 -1.0790 0.9854
-2.0046 -2.8578 -1.0737 0.9855
-1.8976 -2.9227 -1.0718 0.9855
-1.2354 -2.0608 -0.7390 0.9900
-1.1435 -2.0724 -0.7280 0.9901
-1.0889 -2.1524 -0.7419 0.9900
-1.3340 -3.1846 -1.0620 0.9857
-1.2167 -3.2241 -1.0599 0.9857
-1.0983 -3.2593 -1.0579 0.9857
-0.9789 -3.2900 -1.0558 0.9857
2.0059 -2.2569 -1.0037 0.9874
2.2278 -2.0208 -0.9998 0.9874
2.2961 -1.9374 -0.9986 0.9874
2.3613 -1.8518 -0.9975 0.9874
2.5969 -1.7515 -1.0412 0.9869
2.7923 -1.7411 -1.0938 0.9862
3.0086 -1.5889 -1.1310 0.9858
3.1098 -1.3673 -1.1292 0.9858
3.1546 -1.2541 -1.1284 0.9858
1.5209 -0.3642 -0.5198 0.9934
2.1742 -0.2789 -0.7286 0.9908
3.3693 -0.3099 -1.1247 0.9858
3.3778 -0.1890 -1.1245 0.9858
3.3785 0.1745 -1.1245 0.9858
3.3705 0.2955 -1.1247 0.9858
3.2975 0.7748 -1.1259 0.9858
3.2366 1.0098 -1.1270 0.9858
3.2001 1.1258 -1.1276 0.9858
3.1597 1.2405 -1.1283 0.9858
3.1154 1.3538 -1.1291 0.9858
2.1828 1.0430 -0.8041 0.9899
2.1150 1.1054 -0.7933 0.9900
1.5323 1.1054 -0.6281 0.9921
1.4468 1.2102 -0.6270 0.9921
1.4369 1.2922 -0.6424 0.9919
2.4672 2.3840 -1.1404 0.9856
2.3833 2.4741 -1.1419 0.9856
2.2962 2.5613 -1.1434 0.9856
2.1128 2.7267 -1.1466 0.9856
2.0167 2.8048 -1.1483 0.9855
1.8162 2.9509 -1.1518 0.9855
1.6053 3.0832 -1.1555 0.9855
0.9200 3.3895 -1.1674 0.9853
0.6774 3.4591 -1.1717 0.9853
0.1777 3.5466 -1.1804 0.9851
-0.0770 3.5636 -1.1848 0.9851
-0.5897 3.5426 -1.1938 0.9850
-0.8450 3.5043 -1.1982 0.9849
-1.3467 3.3722 -1.2070 0.9848
-1.5902 3.2786 -1.2113 0.9848
-1.7096 3.2251 -1.2133 0.9847
-1.9426 3.1047 -1.2174 0.9847
-2.0560 3.0381 -1.2194 0.9847
-2.1669 2.9672 -1.2213 0.9846
-1.0315 1.2186 -0.5307 0.9933
-1.3415 1.1054 -0.5778 0.9927
-3.1113 2.0460 -1.2378 0.9844
-3.1860 1.9353 -1.2391 0.9844
-3.3228 1.7055 -1.2415 0.9844
-3.5868 1.0901 -1.2461 0.9843
-3.6255 0.9614 -1.2468 0.9843
-3.6593 0.8313 -1.2474 0.9843
-3.6883 0.6999 -1.2479 0.9843
-3.7562 -0.1031 -1.2491 0.9843
-3.7217 -0.5053 -1.2485 0.9843
-3.6735 -0.7700 -1.2476 0.9843
-3.6419 -0.9007 -1.2471 0.9843
-1.4684 -0.4195 -0.5076 0.9936
-3.4674 -1.4082 -1.2440 0.9843
-3.3523 -1.6502 -1.2420 0.9844
-3.2316 -1.7373 -1.2196 0.9847
-2.7776 -1.7606 -1.0932 0.9862
-2.6943 -1.8464 -1.0857 0.9863
-2.5493 -2.0298 -1.0832 0.9864
-2.4718 -2.1172 -1.0818 0.9864
-2.3913 -2.2015 -1.0804 0.9864
-2.3077 -2.2827 -1.0790 0.9864
-2.1323 -2.4351 -1.0759 0.9864
-1.9466 -2.5738 -1.0727 0.9865
-1.7517 -2.6980 -1.0693 0.9865
-1.1433 -2.0721 -0.7867 0.9901
-1.3393 -2.9009 -1.0621 0.9866
-1.1241 -2.9788 -1.0583 0.9867
-1.0149 -3.0117 -1.0564 0.9867
-0.9047 -3.0406 -1.0545 0.9867
-0.6821 -3.0861 -1.0506 0.9868
1.8690 -2.1028 -1.0061 0.9881
2.0098 -1.9588 -1.0036 0.9881
2.0763 -1.8834 -1.0025 0.9882
2.2404 -1.7569 -1.0181 0.9880
2.4017 -1.7482 -1.0623 0.9875
2.5776 -1.7385 -1.1118 0.9869
2.6966 -1.6814 -1.1364 0.9866
2.8054 -1.4816 -1.1345 0.9866
1.4870 -0.5303 -0.5646 0.9933
1.4905 -0.4721 -0.5591 0.9934
1.4936 -0.4148 -0.5543 0.9934
1.4962 -0.3583 -0.5502 0.9935
1.9078 -0.3145 -0.6914 0.9918
3.1428 -0.2891 -1.1286 0.9867
3.1508 -0.1763 -1.1285 0.9867
3.1515 0.1628 -1.1285 0.9867
3.1326 0.3881 -1.1288 0.9867
3.1175 0.5002 -1.1291 0.9867
3.0984 0.6118 -1.1294 0.9867
3.0756 0.7226 -1.1298 0.9867
3.0186 0.9418 -1.1308 0.9867
2.9467 1.1568 -1.1321 0.9866
2.9052 1.2625 -1.1328 0.9866
2.1831 1.0432 -0.8652 0.9898
2.1150 1.1054 -0.8534 0.9899
1.6542 1.1054 -0.7115 0.9916
1.5323 1.1054 -0.6757 0.9920
2.2992 2.2217 -1.1434 0.9865
2.1394 2.3865 -1.1462 0.9865
2.0552 2.4647 -1.1476 0.9865
1.9682 2.5401 -1.1491 0.9864
1.7862 2.6819 -1.1523 0.9864
1.5942 2.8111 -1.1557 0.9864
1.4947 2.8707 -1.1574 0.9863
1.2893 2.9796 -1.1610 0.9863
1.1836 3.0287 -1.1628 0.9863
0.6301 3.2176 -1.1725 0.9862
0.3995 3.2657 -1.1765 0.9861
0.1652 3.2973 -1.1806 0.9861
-0.1905 3.3133 -1.1868 0.9860
-0.4288 3.3027 -1.1910 0.9860
-0.6665 3.2749 -1.1951 0.9859
-1.0192 3.2009 -1.2013 0.9858
-1.1352 3.1676 -1.2033 0.9858
-1.2500 3.1301 -1.2053 0.9858
-1.3636 3.0884 -1.2073 0.9858
-1.6952 2.9383 -1.2131 0.9857
-1.9070 2.8180 -1.2168 0.9856
-0.9979 1.1789 -0.5523 0.9935
-1.0167 1.1173 -0.5402 0.9936
-1.0807 1.1054 -0.5528 0.9935
-1.1610 1.1054 -0.5733 0.9932
-1.2476 1.1054 -0.5961 0.9929
-1.3415 1.1054 -0.6216 0.9926
-1.4439 1.1054 -0.6503 0.9923
-1.5565 1.1054 -0.6827 0.9919
-1.6113 1.0596 -0.6896 0.9918
-2.9517 1.7930 -1.2350 0.9854
-3.0168 1.6876 -1.2362 0.9854
-3.0780 1.5798 -1.2372 0.9854
-3.1351 1.4697 -1.2382 0.9854
-3.2369 1.2432 -1.2400 0.9854
-3.3573 0.8903 -1.2421 0.9854
-3.3886 0.7698 -1.2426 0.9853
-3.4152 0.6481 -1.2431 0.9853
-3.4373 0.5255 -1.2435 0.9853
-3.4676 0.2782 -1.2440 0.9853
-3.4757 0.1538 -1.2442 0.9853
-3.4720 -0.2200 -1.2441 0.9853
-3.4461 -0.4679 -1.2437 0.9853
-1.5004 -0.2588 -0.5445 0.9936
-1.5052 -0.3155 -0.5500 0.9935
-1.3109 -0.3242 -0.4829 0.9943
-1.2810 -0.3660 -0.4764 0.9944
-3.0459 -1.6375 -1.2367 0.9854
-2.7541 -1.7457 -1.1661 0.9862
-2.5615 -1.7554 -1.1105 0.9869
-2.2165 -2.0406 -1.0774 0.9873
-2.1393 -2.1160 -1.0760 0.9873
-2.0594 -2.1885 -1.0746 0.9873
-1.8923 -2.3240 -1.0717 0.9873
-1.6249 -2.5027 -1.0671 0.9874
-1.2361 -2.0619 -0.8597 0.9898
-1.1431 -2.0717 -0.8461 0.9900
-1.2429 -2.6922 -1.0604 0.9875
-1.1438 -2.7305 -1.0587 0.9875
-0.9422 -2.7961 -1.0551 0.9875
-0.7371 -2.8467 -1.0516 0.9876
1.7477 -1.9664 -1.0082 0.9888
2.2250 -1.7449 -1.0836 0.9880
2.3845 -1.7357 -1.1302 0.9874
2.4672 -1.6641 -1.1404 0.9873
2.5231 -1.5733 -1.1395 0.9873
2.5757 -1.4807 -1.1385 0.9874
2.6251 -1.3864 -1.1377 0.9874
2.6712 -1.2905 -1.1369 0.9874
2.7533 -1.0946 -1.1354 0.9874
1.4664 -0.5229 -0.5966 0.9934
1.4700 -0.4656 -0.5909 0.9934
1.4732 -0.4091 -0.5859 0.9935
1.4760 -0.3535 -0.5816 0.9935
1.9078 -0.3145 -0.7410 0.9918
2.1830 -0.2800 -0.8434 0.9906
2.9419 -0.2706 -1.1321 0.9874
2.9532 -0.0593 -1.1320 0.9874
2.9534 0.0466 -1.1319 0.9874
2.9500 0.1524 -1.1320 0.9874
2.9430 0.2580 -1.1321 0.9874
2.9181 0.4682 -1.1326 0.9874
2.9002 0.5726 -1.1329 0.9874
2.8538 0.7794 -1.1337 0.9874
2.7933 0.9826 -1.1347 0.9874
2.1835 1.0433 -0.9274 0.9897
1.7898 1.1054 -0.8061 0.9910
1.6542 1.1054 -0.7624 0.9915
1.4256 1.1082 -0.6920 0.9923
1.4223 1.1897 -0.7106 0.9921
1.4186 1.2757 -0.7311 0.9919
2.1504 2.0780 -1.1460 0.9873
1.8402 2.3750 -1.1514 0.9872
1.6698 2.5071 -1.1544 0.9872
1.5810 2.5688 -1.1559 0.9872
1.4900 2.6274 -1.1575 0.9871
1.3017 2.7351 -1.1608 0.9871
1.1058 2.8296 -1.1642 0.9871
1.0052 2.8717 -1.1660 0.9871
0.9031 2.9103 -1.1677 0.9870
0.4811 3.0284 -1.1751 0.9870
0.3729 3.0486 -1.1770 0.9869
0.2639 3.0650 -1.1789 0.9869
0.0439 3.0860 -1.1827 0.9869
-0.0668 3.0906 -1.1847 0.9868
-0.1778 3.0913 -1.1866 0.9868
-0.6216 3.0540 -1.1943 0.9867
-0.7317 3.0347 -1.1963 0.9867
-0.9502 2.9840 -1.2001 0.9867
-1.1650 2.9174 -1.2038 0.9866
-1.2707 2.8782 -1.2057 0.9866
-0.9679 1.1434 -0.5741 0.9936
-1.0807 1.1054 -0.5924 0.9934
-1.2476 1.1054 -0.6388 0.9929
-1.3415 1.1054 -0.6661 0.9926
-1.4439 1.1054 -0.6969 0.9922
-1.5565 1.1054 -0.7316 0.9919
-1.6189 1.0646 -0.7425 0.9917
-2.7464 1.6683 -1.2314 0.9863
-2.8636 1.4698 -1.2335 0.9863
-2.9166 1.3673 -1.2344 0.9863
-2.9658 1.2628 -1.2353 0.9863
-3.0110 1.1565 -1.2361 0.9863
-3.0523 1.0485 -1.2368 0.9863
-3.1516 0.7159 -1.2385 0.9863
-3.1763 0.6028 -1.2389 0.9862
-3.1968 0.4887 -1.2393 0.9862
-3.2130 0.3740 -1.2396 0.9862
-3.2356 0.0271 -1.2400 0.9862
-3.2344 -0.0888 -1.2400 0.9862
-3.2191 -0.3201 -1.2397 0.9862
-1.5515 -0.2676 -0.6034 0.9933
-1.5570 -0.3264 -0.6096 0.9932
-1.1896 -0.3399 -0.4741 0.9947
-1.1807 -0.3836 -0.4757 0.9947
-1.1706 -0.4272 -0.4775 0.9947
-2.7751 -1.6227 -1.2319 0.9863
-2.5424 -1.7422 -1.1811 0.9869
-2.1323 -1.8264 -1.0759 0.9880
-2.0632 -1.8995 -1.0747 0.9881
-1.9915 -1.9699 -1.0735 0.9881
-1.9173 -2.0375 -1.0722 0.9881
-1.8408 -2.1023 -1.0708 0.9881
-1.6812 -2.2229 -1.0680 0.9881
-1.5135 -2.3311 -1.0651 0.9882
-1.2364 -2.0625 -0.9215 0.9898
-1.1429 -2.0714 -0.9066 0.9899
-1.0872 -2.1490 -0.9229 0.9897
-1.1583 -2.5087 -1.0589 0.9882
-1.0660 -2.5448 -1.0573 0.9883
-0.9727 -2.5773 -1.0557 0.9883
-0.6873 -2.6542 -1.0507 0.9883
-0.5908 -2.6729 -1.0490 0.9883
1.6395 -1.8447 -1.0101 0.9894
1.7027 -1.7828 -1.0090 0.9894
1.8019 -1.7562 -1.0298 0.9892
1.9284 -1.7492 -1.0655 0.9888
2.0638 -1.7414 -1.1052 0.9884
2.3155 -1.5617 -1.1431 0.9880
2.3681 -1.4766 -1.1422 0.9880
2.4176 -1.3898 -1.1413 0.9880
2.5477 -1.1201 -1.1390 0.9880
2.5847 -1.0275 -1.1384 0.9881
1.4498 -0.4592 -0.6224 0.9934
1.4560 -0.3487 -0.6127 0.9936
1.5578 -0.3145 -0.6504 0.9932
1.9078 -0.3145 -0.7913 0.9917
2.7622 -0.2541 -1.1353 0.9881
2.7693 -0.1549 -1.1352 0.9881
2.7731 0.0437 -1.1351 0.9881
2.7699 0.1431 -1.1352 0.9881
2.7633 0.2422 -1.1353 0.9881
2.7398 0.4396 -1.1357 0.9881
2.7028 0.6350 -1.1363 0.9881
2.6793 0.7317 -1.1367 0.9881
2.6525 0.8276 -1.1372 0.9881
2.6223 0.9225 -1.1377 0.9881
2.5523 1.1091 -1.1389 0.9880
1.9421 1.1054 -0.9146 0.9904
1.6542 1.1054 -0.8142 0.9914
1.5323 1.1054 -0.7733 0.9919
1.4220 1.1054 -0.7372 0.9922
1.4104 1.2683 -0.7763 0.9918
2.0176 1.9496 -1.1483 0.9879
1.8027 2.1619 -1.1520 0.9879
1.6471 2.2908 -1.1547 0.9879
1.5659 2.3512 -1.1562 0.9879
1.2203 2.5641 -1.1622 0.9878
1.1292 2.6097 -1.1638 0.9878
0.5512 2.8147 -1.1739 0.9877
0.4507 2.8369 -1.1756 0.9877
0.3493 2.8555 -1.1774 0.9876
0.2471 2.8705 -1.1792 0.9876
-0.1664 2.8940 -1.1864 0.9875
-0.3744 2.8835 -1.1900 0.9875
-0.4782 2.8726 -1.1918 0.9875
-0.7871 2.8174 -1.1972 0.9874
-0.8889 2.7915 -1.1990 0.9874
-0.9898 2.7619 -1.2008 0.9874
-1.1884 2.6917 -1.2042 0.9874
-1.3820 2.6070 -1.2076 0.9873
-1.5693 2.5081 -1.2109 0.9873
-0.9362 1.1900 -0.6197 0.9935
-1.0058 1.1054 -0.6117 0.9936
-1.1610 1.1054 -0.6561 0.9931
-1.2476 1.1054 -0.6822 0.9928
-2.5650 1.5580 -1.2283 0.9871
-2.6212 1.4663 -1.2293 0.9871
-2.6741 1.3725 -1.2302 0.9871
-2.9422 0.6684 -1.2349 0.9870
-2.9994 0.3491 -1.2359 0.9870
-3.0104 0.2415 -1.2360 0.9870
-3.0174 0.1335 -1.2362 0.9870
-3.0142 -0.1910 -1.2361 0.9870
-3.0050 -0.2988 -1.2360 0.9870
-1.1364 -0.3247 -0.4837 0.9949
-1.1180 -0.4080 -0.4871 0.9949
-1.1071 -0.4496 -0.4890 0.9948
-1.0951 -0.4912 -0.4912 0.9948
-1.0862 -0.5347 -0.4955 0.9948
-2.5917 -1.5154 -1.2287 0.9871
-2.5336 -1.6060 -1.2277 0.9871
-2.1944 -1.7472 -1.1480 0.9879
-1.9276 -1.7746 -1.0723 0.9887
-1.8008 -1.9136 -1.0755 0.9887
-1.6468 -2.0225 -1.0674 0.9888
-1.4940 -2.1299 -1.0648 0.9888
-1.2368 -2.0631 -0.9845 0.9897
-1.0832 -2.3461 -1.0576 0.9889
-0.9970 -2.3800 -1.0561 0.9889
-0.9098 -2.4107 -1.0546 0.9889
-0.6430 -2.4834 -1.0499 0.9890
-0.5528 -2.5011 -1.0483 0.9890
1.5624 -1.7579 -1.0250 0.9898
1.6731 -1.7518 -1.0557 0.9895
1.9158 -1.7378 -1.1273 0.9888
2.1267 -1.5480 -1.1464 0.9886
2.2286 -1.3896 -1.1446 0.9886
2.2753 -1.3080 -1.1438 0.9886
2.3192 -1.2248 -1.1430 0.9886
2.3601 -1.1402 -1.1423 0.9886
2.3980 -1.0543 -1.1416 0.9886
2.4329 -0.9672 -1.1410 0.9886
1.4324 -0.4536 -0.6548 0.9935
1.4361 -0.3439 -0.6436 0.9936
1.9078 -0.3145 -0.8427 0.9916
2.6071 -0.1459 -1.1380 0.9887
2.6105 -0.0524 -1.1379 0.9887
2.6107 0.0412 -1.1379 0.9887
2.6077 0.1347 -1.1380 0.9887
2.6014 0.2280 -1.1381 0.9887
2.5920 0.3211 -1.1383 0.9887
2.5793 0.4139 -1.1385 0.9887
2.5634 0.5061 -1.1388 0.9887
2.3242 1.2147 -1.1429 0.9886
1.4171 1.2744 -0.8306 0.9917
1.5491 2.1544 -1.1565 0.9885
1.4726 2.2111 -1.1578 0.9885
1.3941 2.2651 -1.1592 0.9885
1.0615 2.4533 -1.1650 0.9884
0.9742 2.4930 -1.1665 0.9884
0.7040 2.5935 -1.1712 0.9883
0.6115 2.6207 -1.1728 0.9883
0.5179 2.6446 -1.1745 0.9883
0.3281 2.6824 -1.1778 0.9883
0.1356 2.7068 -1.1811 0.9882
-0.0587 2.7173 -1.1845 0.9882
-0.1563 2.7174 -1.1862 0.9882
-0.4488 2.6965 -1.1913 0.9881
-0.5459 2.6825 -1.1930 0.9881
-0.6426 2.6649 -1.1947 0.9881
-0.7387 2.6439 -1.1964 0.9881
-0.9287 2.5914 -1.1997 0.9881
-1.1149 2.5251 -1.2030 0.9880
-1.3847 2.4002 -1.2077 0.9880
-0.8883 1.3126 -0.6907 0.9931
-0.9175 1.1662 -0.6467 0.9935
-1.0807 1.1054 -0.6737 0.9933
-1.6346 1.0749 -0.8526 0.9915
-2.4032 1.4598 -1.2254 0.9878
-2.5052 1.2858 -1.2272 0.9878
-2.5513 1.1960 -1.2280 0.9878
-2.6335 1.0115 -1.2295 0.9878
-2.7018 0.8211 -1.2307 0.9878
-2.7306 0.7241 -1.2312 0.9877
-2.7558 0.6260 -1.2316 0.9877
-2.7773 0.5270 -1.2320 0.9877
-2.8260 0.1250 -1.2328 0.9877
-2.8288 0.0237 -1.2329 0.9877
-2.8278 -0.0777 -1.2329 0.9877
-2.8230 -0.1789 -1.2328 0.9877
-1.2717 -0.3145 -0.5709 0.9943
-1.1009 -0.3145 -0.4990 0.9950
-1.0842 -0.3522 -0.4968 0.9950
-1.0723 -0.4355 -0.5044 0.9950
-1.0577 -0.5207 -0.5138 0.9949
-2.4793 -1.3329 -1.2268 0.9878
-2.3739 -1.5047 -1.2249 0.9878
-2.2563 -1.6681 -1.2229 0.9878
-2.1790 -1.7350 -1.2139 0.9879
-2.0350 -1.7431 -1.1678 0.9884
-1.9012 -1.7503 -1.1262 0.9888
-1.7761 -1.7568 -1.0888 0.9892
-1.6794 -1.7847 -1.0680 0.9894
-1.6126 -1.8417 -1.0668 0.9894
-1.4009 -1.9971 -1.0631 0.9894
-1.3268 -2.0435 -1.0619 0.9894
-1.1425 -2.0706 -1.0307 0.9897
-1.0161 -2.2008 -1.0564 0.9895
-0.9353 -2.2328 -1.0550 0.9895
-0.7710 -2.2878 -1.0522 0.9895
-0.6035 -2.3306 -1.0492 0.9896
-0.5189 -2.3475 -1.0478 0.9896
1.7792 -1.7340 -1.1500 0.9891
2.0060 -1.4602 -1.1485 0.9891
2.0555 -1.3863 -1.1476 0.9891
2.1023 -1.3109 -1.1468 0.9891
1.9078 -0.3145 -0.8950 0.9915
2.4446 -0.3135 -1.1408 0.9892
2.4539 -0.2257 -1.1407 0.9892
2.4602 -0.1377 -1.1406 0.9892
2.4634 -0.0494 -1.1405 0.9892
2.4636 0.0389 -1.1405 0.9892
2.4548 0.2152 -1.1406 0.9892
2.4459 0.3030 -1.1408 0.9892
2.4339 0.3905 -1.1410 0.9892
2.3799 0.6500 -1.1420 0.9892
2.3559 0.7351 -1.1424 0.9892
2.2310 1.0661 -1.1446 0.9892
1.9421 1.1054 -1.0344 0.9902
1.7898 1.1054 -0.9737 0.9908
1.6542 1.1054 -0.9209 0.9913
1.5323 1.1054 -0.8746 0.9917
1.4301 1.2860 -0.8903 0.9916
1.7286 1.7945 -1.1533 0.9891
1.6648 1.8570 -1.1544 0.9891
1.5988 1.9174 -1.1556 0.9891
1.3142 2.1352 -1.1606 0.9890
1.1606 2.2290 -1.1632 0.9890
1.0812 2.2718 -1.1646 0.9890
1.0004 2.3119 -1.1660 0.9890
0.9180 2.3492 -1.1675 0.9889
0.8343 2.3835 -1.1689 0.9889
0.7494 2.4149 -1.1704 0.9889
0.5760 2.4688 -1.1734 0.9889
0.4878 2.4911 -1.1750 0.9889
0.3988 2.5103 -1.1765 0.9889
0.3090 2.5263 -1.1781 0.9888
0.0363 2.5552 -1.1829 0.9888
-0.0553 2.5583 -1.1845 0.9888
-0.1471 2.5581 -1.1861 0.9888
-0.2390 2.5546 -1.1877 0.9888
-0.3308 2.5479 -1.1893 0.9887
-0.4224 2.5378 -1.1909 0.9887
-0.5138 2.5244 -1.1925 0.9887
-0.6047 2.5077 -1.1941 0.9887
-0.8737 2.4379 -1.1987 0.9887
-0.9617 2.4081 -1.2003 0.9886
-1.0486 2.3751 -1.2018 0.9886
-1.1345 2.3390 -1.2033 0.9886
-1.3022 2.2572 -1.2062 0.9886
-0.8804 1.3009 -0.7271 0.9931
-0.8871 1.2147 -0.6962 0.9934
-1.0807 1.1054 -0.7156 0.9932
-1.3415 1.1054 -0.8046 0.9924
-2.3536 1.2080 -1.2246 0.9884
-2.3969 1.1236 -1.2253 0.9884
-2.4739 0.9502 -1.2267 0.9884
-2.5649 0.6801 -1.2283 0.9884
-2.5884 0.5880 -1.2287 0.9884
-2.6543 0.1174 -1.2298 0.9884
-2.6559 -0.0729 -1.2299 0.9884
-2.6515 -0.1680 -1.2298 0.9884
-2.6434 -0.2629 -1.2296 0.9884
-2.6319 -0.3573 -1.2294 0.9884
-1.5005 -0.3145 -0.7096 0.9933
-1.2717 -0.3145 -0.6064 0.9942
-1.1009 -0.3145 -0.5300 0.9950
-1.0512 -0.3837 -0.5180 0.9951
-1.0449 -0.4244 -0.5220 0.9950
-1.0379 -0.4655 -0.5265 0.9950
-1.0217 -0.5493 -0.5370 0.9949
-2.2306 -1.4139 -1.2224 0.9884
-2.1768 -1.4917 -1.2215 0.9884
-1.9991 -1.7123 -1.2184 0.9885
-1.8886 -1.7388 -1.1883 0.9887
-1.6485 -1.7519 -1.1135 0.9895
-1.5389 -1.7575 -1.0813 0.9898
-1.3851 -1.8314 -1.0629 0.9899
-1.1766 -1.9627 -1.0592 0.9900
-1.0305 -2.0370 -1.0567 0.9900
-0.8798 -2.1003 -1.0541 0.9900
-0.5678 -2.1931 -1.0486 0.9901
-0.4883 -2.2091 -1.0472 0.9901
1.5435 -1.7367 -1.1397 0.9897
1.6849 -1.6421 -1.1541 0.9896
1.7952 -1.5147 -1.1522 0.9896
1.8468 -1.4483 -1.1513 0.9896
