ply
format ascii 1.0
element vertex 1577
property float32 x
property float32 y
property float32 z
property float32 I
end_header
-7.0528 6.3806 -0.4823 0.9626
-7.5734 6.3740 -0.5020 0.9611
-8.7753 6.3720 -0.5500 0.9575
-9.4308 6.3454 -0.5765 0.9555
-10.2067 6.3491 -0.6096 0.9530
-25.1452 14.4201 -1.4700 0.8904
-25.8639 13.6265 -1.4826 0.8895
-27.7920 11.0213 -1.5162 0.8871
-31.5160 8.7285 -1.6585 0.8772
-34.8726 5.7288 -1.7922 0.8680
-35.1501 4.4895 -1.7971 0.8677
-35.3601 3.2356 -1.8008 0.8674
-35.5020 1.9711 -1.8032 0.8673
-35.5783 -0.5731 -1.8046 0.8672
-23.6780 -2.0814 -1.2054 0.9092
-13.8144 -2.2188 -0.7096 0.9455
-9.6735 -2.2734 -0.5039 0.9610
-6.7561 -2.1077 -0.3589 0.9721
-5.3502 -2.0996 -0.2915 0.9772
-10.8812 -4.7262 -0.6016 0.9536
-9.6242 -4.5962 -0.5409 0.9582
-3.9666 -2.0718 -0.2269 0.9822
-25.4451 -15.7023 -1.5164 0.8871
-20.3321 -18.2629 -1.3860 0.8963
-3.9103 -4.6820 -0.3094 0.9759
-15.8009 -20.3580 -1.3069 0.9019
-14.8764 -20.6521 -1.2908 0.9031
-13.9512 -20.9062 -1.2746 0.9042
-2.6133 -4.5974 -0.2682 0.9790
-7.6096 -21.6529 -1.1639 0.9122
-1.2613 -4.6225 -0.2430 0.9810
-1.0977 -4.6757 -0.2436 0.9809
-4.2168 -21.3713 -1.1047 0.9165
-2.6097 -21.0693 -1.0767 0.9185
-0.8380 -16.2057 -0.8230 0.9371
-0.3218 -20.2700 -1.0281 0.9220
0.0937 -4.7045 -0.2386 0.9813
3.1259 -19.0007 -0.9766 0.9258
4.3766 -18.3099 -0.9547 0.9274
4.9740 -17.9434 -0.9443 0.9281
1.6417 -4.6117 -0.2483 0.9806
6.6547 -16.7694 -0.9150 0.9303
8.2802 -15.7074 -0.9005 0.9314
10.6160 -15.7701 -0.9641 0.9267
1.6065 -2.0526 -0.1322 0.9896
4.3500 -4.8060 -0.3287 0.9744
13.5013 -12.9249 -0.9479 0.9279
14.5285 -11.1881 -0.9300 0.9292
2.9326 -2.0956 -0.1828 0.9857
7.1380 -4.7243 -0.4341 0.9663
15.3905 -9.4121 -0.9149 0.9303
15.6420 -8.8129 -0.9105 0.9306
5.5850 -2.1658 -0.3038 0.9763
9.4653 -3.2861 -0.5081 0.9607
17.0289 -3.9296 -0.8863 0.9324
17.2697 -2.0724 -0.8821 0.9327
17.3471 -0.8309 -0.8808 0.9328
17.3390 1.0329 -0.8809 0.9328
17.3032 1.6537 -0.8815 0.9328
17.0962 3.5126 -0.8851 0.9325
16.8746 4.7469 -0.8890 0.9322
16.7386 5.3619 -0.8914 0.9320
-0.1736 14.1031 -1.0342 0.9450
-0.6839 14.2092 -1.0431 0.9445
-1.7279 14.3707 -1.0613 0.9436
-2.2606 14.4250 -1.0706 0.9431
-3.8943 14.4753 -1.0991 0.9417
-5.0064 14.4098 -1.1185 0.9407
-5.5670 14.3459 -1.1283 0.9401
-6.1296 14.2605 -1.1381 0.9396
-6.6933 14.1534 -1.1480 0.9391
-7.8200 13.8722 -1.1676 0.9381
-8.9391 13.4996 -1.1872 0.9371
-9.4931 13.2784 -1.1968 0.9366
-5.9200 7.6838 -0.7112 0.9618
-5.9488 6.6737 -0.6555 0.9648
-7.5588 6.3617 -0.7244 0.9612
-8.1507 6.3760 -0.7588 0.9593
-8.8067 6.3948 -0.7980 0.9573
-10.2262 6.3612 -0.8830 0.9528
-16.5756 8.7330 -1.3737 0.9276
-18.0918 8.7196 -1.4726 0.9226
-18.8977 8.2884 -1.5130 0.9206
-19.2690 7.6414 -1.5199 0.9202
-19.9121 6.2900 -1.5311 0.9197
-20.1876 5.5911 -1.5359 0.9194
-20.4311 4.8787 -1.5402 0.9192
-20.8188 3.4201 -1.5469 0.9189
-21.0695 1.9280 -1.5513 0.9186
-21.1422 1.1738 -1.5526 0.9186
-21.1476 -1.0984 -1.5527 0.9186
-16.6324 -2.0641 -1.2289 0.9350
-13.8085 -2.2178 -1.0254 0.9455
-10.9661 -2.1664 -0.8196 0.9562
-7.9707 -2.1769 -0.6058 0.9674
-9.0708 -3.1902 -0.7050 0.9622
-10.9556 -4.7585 -0.8758 0.9532
-9.6222 -4.5953 -0.7818 0.9581
-3.9468 -2.2447 -0.3329 0.9820
-16.7385 -11.1757 -1.4757 0.9225
-2.6469 -2.0554 -0.2457 0.9866
-5.2315 -4.6991 -0.5156 0.9722
-14.0159 -13.5262 -1.4282 0.9249
-13.4254 -13.9179 -1.4179 0.9254
-12.8230 -14.2826 -1.4074 0.9259
-3.9086 -4.6801 -0.4471 0.9758
-1.2798 -2.0749 -0.1787 0.9903
-1.1098 -2.1261 -0.1758 0.9904
-6.1539 -15.6919 -1.2359 0.9346
-1.2616 -4.6234 -0.3514 0.9810
-3.0965 -15.6937 -1.1729 0.9379
-1.9437 -15.6925 -1.1594 0.9385
-0.2491 -15.6887 -1.1505 0.9390
0.0938 -4.7087 -0.3453 0.9813
0.1161 -2.0830 -0.1530 0.9917
0.1884 -2.0535 -0.1512 0.9918
0.2659 -2.0777 -0.1536 0.9916
2.5198 -15.3167 -1.1382 0.9396
3.5558 -14.8761 -1.1215 0.9405
1.6413 -4.6108 -0.3589 0.9806
5.4733 -13.7924 -1.0880 0.9422
5.9205 -13.4903 -1.0802 0.9426
6.3545 -13.1768 -1.0726 0.9430
2.6957 -4.6981 -0.3972 0.9785
2.9210 -4.6933 -0.4053 0.9781
7.9563 -11.8191 -1.0447 0.9445
1.5212 -2.0940 -0.1898 0.9897
9.3400 -10.3190 -1.0205 0.9457
9.9492 -9.5244 -1.0099 0.9463
10.2331 -9.1174 -1.0049 0.9465
2.9337 -2.0964 -0.2644 0.9856
7.1407 -4.7260 -0.6279 0.9662
11.4461 -6.9999 -0.9838 0.9476
0.9003 -0.5072 -0.0758 0.9959
10.6805 -4.5879 -0.8523 0.9544
9.4352 -3.2756 -0.7323 0.9607
7.1486 -2.1985 -0.5484 0.9704
11.2049 -2.5857 -0.8432 0.9549
11.2741 -2.1800 -0.8420 0.9550
12.9110 -2.0203 -0.9582 0.9489
12.9628 -1.5556 -0.9573 0.9490
13.0011 -1.0900 -0.9566 0.9490
13.0259 -0.6239 -0.9562 0.9490
13.0372 -0.1574 -0.9560 0.9491
13.0350 0.3091 -0.9560 0.9490
12.9901 1.2415 -0.9568 0.9490
12.9474 1.7068 -0.9575 0.9490
12.8216 2.6344 -0.9597 0.9489
12.6416 3.5561 -0.9629 0.9487
12.5313 4.0142 -0.9648 0.9486
-1.3106 10.9001 -1.0540 0.9568
-1.7110 10.9181 -1.0610 0.9566
-2.1145 10.9220 -1.0680 0.9563
-2.5206 10.9112 -1.0751 0.9560
-2.9286 10.8857 -1.0822 0.9557
-5.3861 10.4085 -1.1251 0.9540
-5.7913 10.2733 -1.1322 0.9537
-6.1933 10.1219 -1.1392 0.9534
-6.9850 9.7702 -1.1530 0.9529
-5.8977 7.6549 -0.9277 0.9619
-5.8461 7.0510 -0.8793 0.9639
-6.6074 6.4223 -0.8846 0.9637
-7.0970 6.4206 -0.9188 0.9623
-7.6436 6.4331 -0.9591 0.9606
-8.2245 6.4337 -1.0025 0.9589
-12.3791 7.7004 -1.3996 0.9431
-12.9975 6.8478 -1.4104 0.9427
-13.7905 5.4688 -1.4243 0.9421
-14.0159 4.9856 -1.4282 0.9420
-14.2209 4.4922 -1.4318 0.9418
-14.4047 3.9894 -1.4350 0.9417
-14.8246 2.4354 -1.4423 0.9414
-14.9193 1.9056 -1.4440 0.9414
-14.9909 1.3717 -1.4452 0.9413
-15.0391 0.8350 -1.4461 0.9413
-15.0639 0.2965 -1.4465 0.9413
-15.0650 -0.2427 -1.4465 0.9413
-14.0706 -1.7461 -1.3612 0.9446
-9.6550 -2.2691 -0.9522 0.9609
-6.7512 -2.1062 -0.6790 0.9720
-10.9499 -4.7560 -1.1461 0.9532
-3.9650 -2.0710 -0.4295 0.9822
-3.9445 -2.2434 -0.4357 0.9819
-12.4115 -7.6592 -1.4002 0.9431
-2.5247 -2.1095 -0.3159 0.9869
-9.7952 -10.1545 -1.3545 0.9449
-9.3745 -10.4415 -1.3472 0.9452
-3.9070 -4.6782 -0.5852 0.9758
-8.0623 -11.1924 -1.3243 0.9461
-1.2801 -2.0755 -0.2341 0.9902
-1.1731 -2.0638 -0.2279 0.9905
-1.1093 -2.1250 -0.2301 0.9904
-5.7613 -12.0710 -1.2841 0.9477
-5.2918 -12.1911 -1.2759 0.9480
-4.8209 -12.2929 -1.2677 0.9483
-4.3496 -12.3767 -1.2595 0.9486
-3.8785 -12.4427 -1.2512 0.9490
-1.2618 -4.6243 -0.4602 0.9809
-1.0963 -4.6698 -0.4605 0.9809
-1.5500 -12.5142 -1.2106 0.9506
-1.0941 -12.4790 -1.2026 0.9509
-0.6426 -12.4282 -1.1948 0.9512
0.1162 -2.0834 -0.2003 0.9917
0.1884 -2.0539 -0.1980 0.9917
0.2658 -2.0774 -0.2011 0.9916
0.7137 -3.5420 -0.3469 0.9856
2.7498 -11.5039 -1.1355 0.9536
3.5230 -11.1438 -1.1221 0.9541
4.6169 -10.5200 -1.1030 0.9549
4.9630 -10.2914 -1.0969 0.9551
5.6263 -9.8056 -1.0853 0.9556
2.9223 -4.6954 -0.5310 0.9780
7.1081 -8.4416 -1.0595 0.9566
7.3732 -8.1461 -1.0548 0.9568
8.1044 -7.2207 -1.0421 0.9573
2.7817 -2.1422 -0.3371 0.9860
4.3902 -2.0749 -0.4662 0.9807
5.7523 -2.2307 -0.5923 0.9755
8.7230 -3.0284 -0.8865 0.9636
8.8882 -2.3890 -0.8836 0.9637
10.3251 -1.6157 -1.0033 0.9589
10.3685 -1.2443 -1.0026 0.9589
10.4005 -0.8720 -1.0020 0.9589
10.4213 -0.4991 -1.0016 0.9589
10.4289 0.2473 -1.0015 0.9589
10.2502 2.1061 -1.0046 0.9588
10.1806 2.4744 -1.0058 0.9588
0.2053 8.7408 -1.0386 0.9654
-0.1076 8.7434 -1.0387 0.9654
-0.7363 8.7578 -1.0440 0.9652
-1.0548 8.7723 -1.0495 0.9650
-1.3752 8.7755 -1.0551 0.9649
-1.6974 8.7671 -1.0607 0.9647
-2.3528 8.7454 -1.0758 0.9642
-3.0366 8.7401 -1.0991 0.9634
-3.3911 8.7385 -1.1134 0.9629
-3.7553 8.7367 -1.1296 0.9624
-4.1307 8.7346 -1.1477 0.9618
-5.7757 8.7223 -1.2427 0.9587
-6.2329 8.7182 -1.2730 0.9577
-6.6457 8.6258 -1.2935 0.9571
-7.3484 8.2438 -1.3118 0.9565
-8.5887 7.2285 -1.3335 0.9558
-9.1504 6.6443 -1.3433 0.9555
-9.6665 6.0130 -1.3523 0.9552
-9.9060 5.6808 -1.3565 0.9550
-10.1323 5.3383 -1.3604 0.9549
-10.3450 4.9859 -1.3641 0.9548
-10.5435 4.6243 -1.3676 0.9547
-10.8960 3.8758 -1.3737 0.9545
-11.1864 3.0981 -1.3788 0.9543
-11.4117 2.2968 -1.3827 0.9542
-11.4993 1.8891 -1.3843 0.9541
-11.5698 1.4778 -1.3855 0.9541
-11.6231 1.0636 -1.3864 0.9541
-11.6774 0.2298 -1.3874 0.9540
-11.6782 -0.1881 -1.3874 0.9540
-11.5759 -1.4366 -1.3856 0.9541
-10.0239 -1.9802 -1.2137 0.9597
-9.6458 -2.2669 -1.1770 0.9609
-8.1654 -2.2301 -1.0055 0.9665
-9.5769 -3.3682 -1.2059 0.9599
-5.3444 -2.0973 -0.6820 0.9771
-9.0973 -4.3446 -1.1975 0.9602
-3.9643 -2.0705 -0.5313 0.9821
-3.7777 -2.1485 -0.5162 0.9826
-9.1773 -6.6139 -1.3437 0.9555
-2.6498 -2.0576 -0.3985 0.9866
-7.7032 -7.9858 -1.3180 0.9563
-6.0218 -9.0238 -1.2887 0.9572
-1.2804 -2.0760 -0.2897 0.9902
-4.5818 -9.5996 -1.2635 0.9581
-4.2138 -9.7078 -1.2571 0.9583
-3.4727 -9.8815 -1.2442 0.9587
-1.2620 -4.6252 -0.5695 0.9809
-1.9852 -10.0614 -1.2182 0.9595
-1.6154 -10.0723 -1.2117 0.9597
-1.2473 -10.0700 -1.2053 0.9600
-0.1585 -9.9857 -1.1863 0.9606
0.1884 -2.0542 -0.2450 0.9917
0.2658 -2.0770 -0.2487 0.9916
1.5798 -9.6025 -1.1560 0.9616
0.7140 -3.5433 -0.4294 0.9855
2.2399 -9.3706 -1.1444 0.9619
2.5611 -9.2389 -1.1388 0.9621
2.8760 -9.0973 -1.1333 0.9623
1.6407 -4.6089 -0.5811 0.9805
3.7809 -8.6150 -1.1176 0.9628
4.6208 -8.0532 -1.1029 0.9633
1.6072 -2.0536 -0.3098 0.9896
5.8627 -6.9626 -1.0812 0.9640
6.0861 -6.7241 -1.0773 0.9641
4.5017 -4.6293 -0.7670 0.9743
6.5067 -6.2289 -1.0700 0.9644
0.7360 -0.6100 -0.1136 0.9962
0.7767 -0.5550 -0.1134 0.9962
0.7971 -0.5275 -0.1135 0.9962
0.9002 -0.5072 -0.1227 0.9958
4.3495 -2.2495 -0.5817 0.9805
7.6109 -1.7563 -0.9278 0.9690
8.5491 -1.6531 -1.0343 0.9655
8.5960 -1.3451 -1.0335 0.9656
8.6785 -0.4157 -1.0321 0.9656
8.6866 -0.1049 -1.0319 0.9656
8.6221 1.1366 -1.0330 0.9656
8.5818 1.4454 -1.0337 0.9656
0.1954 8.3203 -1.1792 0.9669
-1.3160 8.3971 -1.2043 0.9662
-3.1629 8.1506 -1.2388 0.9653
-4.6592 7.6147 -1.2649 0.9646
-5.2330 7.3196 -1.2749 0.9643
-5.7865 6.9791 -1.2845 0.9640
-6.3159 6.5945 -1.2938 0.9638
-8.1132 4.6527 -1.3252 0.9629
-8.4641 4.0794 -1.3313 0.9628
-8.6224 3.7817 -1.3341 0.9627
-8.9034 3.1671 -1.3390 0.9625
-9.1345 2.5299 -1.3430 0.9624
-9.2307 2.2042 -1.3447 0.9624
-9.3833 1.5415 -1.3473 0.9623
-9.4815 0.8676 -1.3490 0.9623
-9.5100 0.5280 -1.3495 0.9623
-9.5246 0.1875 -1.3498 0.9622
-9.5121 -0.4941 -1.3496 0.9623
-9.4441 -1.1720 -1.3484 0.9623
-8.8333 -1.7450 -1.2758 0.9643
-8.0259 -2.1920 -1.1788 0.9669
-7.8253 -2.7521 -1.1753 0.9670
-5.3424 -2.0966 -0.8132 0.9771
-7.5808 -3.2927 -1.1711 0.9672
-3.5416 -2.1855 -0.5897 0.9833
-6.5952 -6.3648 -1.2987 0.9636
-6.3416 -6.5742 -1.2942 0.9638
-3.9038 -4.6743 -0.8629 0.9757
-1.2808 -2.0765 -0.3457 0.9902
-3.7996 -7.9609 -1.2499 0.9650
-2.8875 -8.2162 -1.2339 0.9654
-1.2623 -4.6260 -0.6794 0.9808
-1.0950 -4.6640 -0.6788 0.9808
-1.3491 -8.4118 -1.2071 0.9662
-1.0426 -8.4172 -1.2017 0.9663
-0.7375 -8.4117 -1.1964 0.9665
-0.1329 -8.3684 -1.1859 0.9668
0.1162 -2.0840 -0.2957 0.9916
0.1885 -2.0545 -0.2923 0.9917
0.2657 -2.0766 -0.2966 0.9916
0.7144 -3.5453 -0.5124 0.9855
2.4278 -7.6794 -1.1412 0.9680
1.6403 -4.6080 -0.6930 0.9804
2.9471 -7.4267 -1.1321 0.9682
3.1985 -7.2881 -1.1277 0.9684
3.4441 -7.1417 -1.1234 0.9685
3.6836 -6.9878 -1.1192 0.9686
4.3644 -6.4833 -1.1074 0.9689
1.5232 -2.0967 -0.3672 0.9896
4.3749 -5.1956 -0.9624 0.9729
4.5440 -5.0203 -0.9594 0.9730
0.7371 -0.6109 -0.1356 0.9961
0.7973 -0.5277 -0.1355 0.9961
6.0511 -2.5993 -0.9331 0.9737
5.7582 -2.2330 -0.8751 0.9754
6.2037 -2.1537 -0.9305 0.9738
6.2691 -1.9280 -0.9293 0.9739
6.5268 -1.7543 -0.9576 0.9731
1.5194 -0.3506 -0.2209 0.9937
7.4138 -0.6216 -1.0541 0.9704
7.4351 0.1763 -1.0538 0.9704
7.4069 0.7079 -1.0543 0.9704
7.3448 1.2370 -1.0553 0.9704
7.3012 1.5001 -1.0561 0.9703
7.2490 1.7619 -1.0570 0.9703
0.1683 7.1646 -1.1806 0.9714
-0.0885 7.1932 -1.1851 0.9713
-1.1309 7.2161 -1.2033 0.9708
-1.3936 7.1984 -1.2079 0.9707
-2.1815 7.0874 -1.2216 0.9704
-2.4428 7.0309 -1.2262 0.9703
-2.9610 6.8887 -1.2352 0.9701
-3.2171 6.8029 -1.2397 0.9700
-3.4708 6.7073 -1.2441 0.9698
-3.9692 6.4869 -1.2528 0.9696
-4.4527 6.2282 -1.2613 0.9694
-5.1431 5.7698 -1.2733 0.9692
-5.5754 5.4192 -1.2809 0.9690
-5.7819 5.2309 -1.2845 0.9689
-5.9816 5.0343 -1.2880 0.9688
-6.3586 4.6171 -1.2945 0.9686
-6.8631 3.9358 -1.3033 0.9684
-7.4080 2.9378 -1.3129 0.9682
-7.5195 2.6748 -1.3148 0.9682
-7.7908 1.8603 -1.3195 0.9681
-7.8595 1.5818 -1.3207 0.9680
-7.9634 1.0171 -1.3225 0.9680
-8.0341 0.1581 -1.3238 0.9679
-8.0346 -0.1294 -1.3238 0.9679
-8.0013 -0.7034 -1.3232 0.9680
-7.9674 -0.9887 -1.3226 0.9680
-7.9222 -1.2724 -1.3218 0.9680
-6.7751 -1.8504 -1.1570 0.9719
-6.6966 -2.0891 -1.1556 0.9720
-6.6088 -2.3243 -1.1541 0.9720
-6.4060 -2.7824 -1.1506 0.9721
-6.2914 -3.0046 -1.1486 0.9721
-3.9373 -2.2393 -0.7462 0.9818
-5.8977 -3.6395 -1.1417 0.9723
-5.5964 -4.0333 -1.1364 0.9724
-3.9022 -4.6724 -1.0029 0.9756
-4.7111 -6.0698 -1.2658 0.9693
-4.2371 -6.3494 -1.2575 0.9695
-1.2811 -2.0770 -0.4020 0.9902
-1.1726 -2.0628 -0.3909 0.9904
-3.2426 -6.7938 -1.2401 0.9699
-2.9866 -6.8806 -1.2357 0.9701
-2.7286 -6.9576 -1.2312 0.9702
-2.4688 -7.0248 -1.2266 0.9703
-1.0943 -4.6610 -0.7887 0.9808
-0.8948 -7.2240 -1.1992 0.9709
-0.6333 -7.2238 -1.1946 0.9710
-0.3730 -7.2143 -1.1901 0.9711
-0.1142 -7.1956 -1.1855 0.9712
0.1427 -7.1678 -1.1811 0.9714
0.1162 -2.0843 -0.3439 0.9916
0.1885 -2.0548 -0.3399 0.9917
1.8663 -6.7327 -1.1510 0.9721
2.5503 -6.4266 -1.1390 0.9724
2.9834 -6.1864 -1.1315 0.9725
3.1925 -6.0562 -1.1278 0.9726
2.9263 -4.7018 -0.9123 0.9778
1.5239 -2.0976 -0.4271 0.9895
3.8019 -4.5151 -0.9724 0.9764
3.9504 -4.3645 -0.9698 0.9764
0.7193 -0.6409 -0.1587 0.9961
0.7389 -0.6123 -0.1581 0.9961
0.7583 -0.5840 -0.1577 0.9961
0.7777 -0.5557 -0.1575 0.9961
0.7976 -0.5279 -0.1576 0.9961
0.8224 -0.5029 -0.1588 0.9961
0.9001 -0.5071 -0.1702 0.9958
0.9441 -0.4883 -0.1751 0.9957
0.9737 -0.4183 -0.1746 0.9957
5.6982 -1.7524 -0.9821 0.9761
6.3453 -1.4643 -1.0728 0.9739
6.4254 -1.0054 -1.0714 0.9740
6.4542 -0.7745 -1.0709 0.9740
6.4755 -0.5429 -1.0705 0.9740
6.4894 -0.3108 -1.0703 0.9740
6.4956 -0.0784 -1.0702 0.9740
6.4944 0.1540 -1.0702 0.9740
6.4694 0.6183 -1.0706 0.9740
6.4456 0.8497 -1.0710 0.9740
6.4144 1.0803 -1.0716 0.9740
6.3756 1.3100 -1.0723 0.9740
6.3295 1.5384 -1.0731 0.9739
6.2148 1.9908 -1.0751 0.9739
0.1475 6.2813 -1.1810 0.9748
-0.0776 6.3035 -1.1849 0.9747
-0.7601 6.3218 -1.1968 0.9744
-0.9891 6.3116 -1.2008 0.9743
-1.4475 6.2662 -1.2088 0.9742
-1.9044 6.1872 -1.2168 0.9740
-2.1315 6.1350 -1.2208 0.9739
-2.3572 6.0743 -1.2247 0.9738
-2.8033 5.9277 -1.2325 0.9737
-3.4538 5.6447 -1.2438 0.9734
-3.6644 5.5338 -1.2475 0.9733
-3.8712 5.4148 -1.2511 0.9733
-4.0739 5.2877 -1.2547 0.9732
-4.8374 4.7019 -1.2680 0.9729
-5.0148 4.5368 -1.2711 0.9729
-5.6604 3.8085 -1.2823 0.9726
-6.4063 2.5405 -1.2954 0.9723
-6.6648 1.8459 -1.2999 0.9722
-6.7913 1.3668 -1.3021 0.9722
-6.9096 0.6323 -1.3042 0.9722
-6.9399 0.1366 -1.3047 0.9721
-6.9404 -0.1118 -1.3047 0.9721
-6.7966 -1.3427 -1.3022 0.9722
-6.7390 -1.5838 -1.3012 0.9722
-6.3822 -1.7431 -1.2435 0.9734
-5.3384 -2.0950 -1.0779 0.9769
-5.4430 -2.5994 -1.1338 0.9757
-3.9619 -2.0693 -0.8401 0.9820
-4.9808 -3.3255 -1.1257 0.9759
-4.8487 -3.4944 -1.1234 0.9760
-4.4165 -3.9670 -1.1158 0.9761
-4.2613 -4.1125 -1.1131 0.9762
-2.0932 -2.1700 -0.5667 0.9878
-3.5930 -4.6293 -1.1015 0.9764
-3.4155 -4.7415 -1.0984 0.9765
-1.2814 -2.0776 -0.4588 0.9901
-1.1724 -2.0625 -0.4459 0.9904
-2.4796 -5.1952 -1.0820 0.9768
-2.6035 -5.9979 -1.2290 0.9737
-2.1541 -6.1293 -1.2211 0.9739
-1.2628 -4.6278 -0.9017 0.9807
-1.0936 -4.6581 -0.8993 0.9807
-1.2412 -6.2908 -1.2052 0.9742
-0.1001 -6.3053 -1.1853 0.9747
0.1251 -6.2839 -1.1814 0.9747
0.1163 -2.0853 -0.3926 0.9915
0.1885 -2.0552 -0.3879 0.9916
0.2656 -2.0759 -0.3934 0.9915
1.0070 -6.1210 -1.1660 0.9751
1.4329 -5.9948 -1.1585 0.9752
1.4405 -5.1966 -1.0136 0.9783
1.9709 -4.9666 -1.0043 0.9785
2.3074 -4.7848 -0.9985 0.9786
2.4701 -4.6858 -0.9956 0.9787
2.6289 -4.5816 -0.9929 0.9787
2.7835 -4.4724 -0.9902 0.9788
1.6080 -2.0546 -0.4904 0.9894
3.3587 -3.9888 -0.9801 0.9790
3.4910 -3.8569 -0.9778 0.9790
0.7407 -0.6138 -0.1808 0.9961
0.7602 -0.5854 -0.1803 0.9961
0.7796 -0.5571 -0.1801 0.9961
0.7989 -0.5288 -0.1801 0.9961
4.7420 -1.8389 -0.9560 0.9795
5.5805 -1.4999 -1.0861 0.9768
5.7241 -0.6869 -1.0836 0.9768
5.7433 -0.4815 -1.0833 0.9768
5.7602 0.1366 -1.0830 0.9768
5.7524 0.3427 -1.0831 0.9768
5.7165 0.7536 -1.0838 0.9768
5.6884 0.9581 -1.0843 0.9768
5.6536 1.1616 -1.0849 0.9768
5.5094 1.7648 -1.0874 0.9767
0.1312 5.5868 -1.1813 0.9774
-0.0690 5.6044 -1.1847 0.9773
-0.2702 5.6150 -1.1883 0.9773
-0.4724 5.6183 -1.1918 0.9772
-0.8781 5.6033 -1.1989 0.9771
-1.0812 5.5847 -1.2024 0.9770
-1.2841 5.5588 -1.2060 0.9769
-1.4865 5.5254 -1.2095 0.9769
-1.8887 5.4363 -1.2165 0.9767
-2.2856 5.3175 -1.2234 0.9766
-2.4813 5.2469 -1.2269 0.9766
-2.6748 5.1690 -1.2302 0.9765
-2.8658 5.0837 -1.2336 0.9764
-3.0539 4.9911 -1.2369 0.9764
-3.2390 4.8914 -1.2401 0.9763
-3.4206 4.7846 -1.2433 0.9762
-3.7726 4.5501 -1.2494 0.9761
-3.9423 4.4227 -1.2524 0.9761
-4.1074 4.2887 -1.2552 0.9760
-4.2677 4.1482 -1.2580 0.9760
-4.5727 3.8486 -1.2634 0.9759
-4.9872 3.3555 -1.2706 0.9757
-5.4492 2.6263 -1.2787 0.9756
-5.7204 2.0348 -1.2834 0.9755
-5.8626 1.6237 -1.2859 0.9754
-5.9216 1.4140 -1.2869 0.9754
-6.0152 0.9882 -1.2885 0.9754
-6.0754 0.5559 -1.2896 0.9754
-6.0929 0.3383 -1.2899 0.9754
-6.1018 0.1201 -1.2901 0.9754
-6.1022 -0.0983 -1.2901 0.9754
-6.0525 -0.7511 -1.2892 0.9754
-5.9772 -1.1808 -1.2879 0.9754
-5.9271 -1.3930 -1.2870 0.9754
-5.5834 -1.7418 -1.2363 0.9764
-5.0274 -1.7681 -1.1265 0.9784
-4.9554 -1.9447 -1.1252 0.9785
-4.7914 -2.2882 -1.1224 0.9785
-3.9611 -2.0689 -0.9446 0.9819
-4.3883 -2.9299 -1.1153 0.9787
-4.2729 -3.0794 -1.1133 0.9787
-2.5198 -2.1055 -0.6941 0.9867
-3.7594 -3.6281 -1.1044 0.9789
-3.4746 -3.8701 -1.0994 0.9790
-3.3261 -3.9825 -1.0968 0.9790
-3.0179 -4.1895 -1.0914 0.9791
-2.8587 -4.2839 -1.0886 0.9792
-1.1722 -2.0622 -0.5014 0.9903
-1.8499 -4.7171 -1.0710 0.9795
-1.6752 -4.7666 -1.0680 0.9796
-1.4992 -4.8097 -1.0649 0.9796
-1.2630 -4.6287 -1.0142 0.9806
-1.0929 -4.6551 -1.0107 0.9806
-0.7885 -4.9164 -1.0525 0.9798
-0.6103 -4.9268 -1.0494 0.9799
-0.4323 -4.9309 -1.0463 0.9800
-0.2548 -4.9286 -1.0432 0.9800
0.0977 -4.9051 -1.0370 0.9801
0.1886 -2.0555 -0.4363 0.9916
0.2656 -2.0755 -0.4423 0.9915
0.7872 -4.7848 -1.0250 0.9804
0.7156 -3.5514 -0.7658 0.9853
0.5109 -2.1373 -0.4645 0.9911
1.9114 -4.3553 -1.0054 0.9807
1.0455 -2.1679 -0.5088 0.9902
2.4880 -3.9977 -0.9953 0.9809
2.6232 -3.8968 -0.9930 0.9810
3.2394 -3.3312 -0.9822 0.9812
3.3499 -3.2069 -0.9803 0.9812
0.7420 -0.6149 -0.2037 0.9961
0.7612 -0.5862 -0.2031 0.9961
0.7993 -0.5290 -0.2026 0.9961
3.9940 -2.2503 -0.9690 0.9814
4.0666 -2.1032 -0.9678 0.9815
4.1342 -1.9539 -0.9666 0.9815
4.1968 -1.8027 -0.9655 0.9815
4.5097 -1.7488 -1.0224 0.9804
4.9603 -1.5255 -1.0970 0.9790
5.0850 -0.9833 -1.0948 0.9790
5.1380 -0.6166 -1.0939 0.9791
5.1707 0.1226 -1.0933 0.9791
5.1310 0.6764 -1.0940 0.9791
5.0366 1.2242 -1.0956 0.9790
4.9931 1.4046 -1.0964 0.9790
4.9435 1.5835 -1.0973 0.9790
-0.7888 5.0330 -1.1973 0.9793
-1.5145 4.9205 -1.2100 0.9791
-1.6940 4.8758 -1.2131 0.9790
-2.0487 4.7664 -1.2193 0.9789
-2.2235 4.7018 -1.2224 0.9789
-2.3962 4.6306 -1.2254 0.9788
-2.7343 4.4688 -1.2313 0.9787
-3.0610 4.2815 -1.2370 0.9786
-3.3742 4.0696 -1.2424 0.9785
-3.9520 3.5754 -1.2525 0.9783
-4.3355 3.1481 -1.2592 0.9782
-4.4525 2.9958 -1.2613 0.9782
-4.5639 2.8390 -1.2632 0.9782
-4.8617 2.3432 -1.2684 0.9781
-5.0284 1.9941 -1.2713 0.9780
-5.2273 1.4477 -1.2748 0.9780
-5.3245 1.0716 -1.2765 0.9779
-5.3622 0.8809 -1.2771 0.9779
-5.4154 0.4955 -1.2781 0.9779
-5.4387 0.1070 -1.2785 0.9779
-5.4320 -0.2821 -1.2784 0.9779
-5.4173 -0.4762 -1.2781 0.9779
-5.3952 -0.6695 -1.2777 0.9779
-5.3286 -1.0527 -1.2766 0.9779
-5.1742 -1.6142 -1.2739 0.9780
-4.9487 -1.7404 -1.2329 0.9787
-4.2748 -2.0415 -1.1134 0.9807
-4.0150 -2.4777 -1.1088 0.9808
-3.9178 -2.6157 -1.1071 0.9808
-3.8155 -2.7498 -1.1053 0.9809
-2.5188 -2.1046 -0.7714 0.9866
-3.4804 -3.1262 -1.0995 0.9810
-3.3599 -3.2425 -1.0974 0.9810
-3.2353 -3.3539 -1.0952 0.9810
-3.1068 -3.4605 -1.0930 0.9811
-2.9747 -3.5619 -1.0907 0.9811
-2.8392 -3.6581 -1.0883 0.9812
-2.5588 -3.8344 -1.0834 0.9812
-1.2821 -2.0787 -0.5740 0.9900
-1.1061 -2.1189 -0.5618 0.9902
-1.8135 -4.1778 -1.0704 0.9815
-1.6586 -4.2293 -1.0677 0.9815
-1.1867 -4.3489 -1.0595 0.9816
-0.8681 -4.3994 -1.0539 0.9817
-0.7082 -4.4159 -1.0511 0.9818
-0.2639 -2.1308 -0.5046 0.9912
-0.0702 -4.4244 -1.0400 0.9820
0.0879 -4.4124 -1.0372 0.9820
0.1165 -2.0890 -0.4917 0.9914
0.2655 -2.0752 -0.4917 0.9914
0.7089 -4.3092 -1.0264 0.9822
1.0101 -4.2257 -1.0211 0.9823
1.3031 -4.1219 -1.0160 0.9824
1.4462 -4.0626 -1.0135 0.9824
1.5868 -3.9986 -1.0110 0.9825
2.1212 -3.6969 -1.0017 0.9826
2.2472 -3.6107 -0.9995 0.9827
2.3698 -3.5204 -0.9974 0.9827
2.8251 -3.1213 -0.9894 0.9829
2.9296 -3.0126 -0.9876 0.9829
3.0301 -2.9007 -0.9859 0.9829
3.1266 -2.7857 -0.9842 0.9829
3.3072 -2.5468 -0.9810 0.9830
2.9415 -2.1020 -0.8497 0.9853
3.4707 -2.2971 -0.9782 0.9830
3.7007 -1.9139 -0.9792 0.9830
3.7445 -1.7697 -0.9734 0.9831
4.0669 -1.7470 -1.0403 0.9820
4.4454 -1.5433 -1.1060 0.9809
1.7238 -0.5301 -0.4239 0.9926
1.7332 -0.4659 -0.4218 0.9927
1.7414 -0.4019 -0.4200 0.9927
4.6827 -0.2243 -1.1018 0.9809
4.6874 -0.0566 -1.1017 0.9809
4.6865 0.1111 -1.1017 0.9809
4.6679 0.4461 -1.1021 0.9809
4.6503 0.6130 -1.1024 0.9809
4.6271 0.7793 -1.1028 0.9809
-0.0563 4.5746 -1.1845 0.9813
-0.2205 4.5807 -1.1874 0.9812
-0.3851 4.5809 -1.1903 0.9812
-0.7152 4.5636 -1.1960 0.9811
-1.2087 4.4929 -1.2046 0.9810
-1.3719 4.4573 -1.2075 0.9809
-1.5341 4.4156 -1.2103 0.9809
-1.6951 4.3680 -1.2131 0.9808
-1.8545 4.3145 -1.2159 0.9808
-2.4728 4.0413 -1.2267 0.9806
-2.6213 3.9586 -1.2293 0.9806
-2.7670 3.8703 -1.2318 0.9805
-3.0488 3.6771 -1.2368 0.9805
-3.4444 3.3479 -1.2437 0.9803
-1.4747 1.3342 -0.5149 0.9918
-3.6875 3.1035 -1.2479 0.9803
-3.8023 2.9744 -1.2499 0.9803
-3.9123 2.8408 -1.2518 0.9802
-4.0173 2.7030 -1.2537 0.9802
-4.1171 2.5610 -1.2554 0.9802
-4.4616 1.9568 -1.2614 0.9801
-4.7984 0.9657 -1.2673 0.9800
-4.8592 0.6206 -1.2684 0.9800
-4.9005 0.0964 -1.2691 0.9800
-4.9009 -0.0790 -1.2691 0.9800
-4.8814 -0.4291 -1.2688 0.9800
-4.8616 -0.6033 -1.2684 0.9800
-4.8351 -0.7766 -1.2679 0.9800
-4.8020 -0.9487 -1.2674 0.9800
-4.7163 -1.2881 -1.2659 0.9800
-4.6051 -1.6196 -1.2639 0.9800
-4.4308 -1.7388 -1.2324 0.9805
-4.0397 -1.7546 -1.1404 0.9820
-3.6219 -2.2351 -1.1020 0.9826
-2.5178 -2.1038 -0.8495 0.9865
-3.1422 -2.8224 -1.0936 0.9827
-3.0340 -2.9280 -1.0917 0.9827
-2.9220 -3.0292 -1.0897 0.9828
-2.8066 -3.1260 -1.0877 0.9828
-2.6878 -3.2183 -1.0857 0.9828
-2.4411 -3.3888 -1.0814 0.9829
-2.3135 -3.4668 -1.0791 0.9829
-1.7797 -3.7289 -1.0698 0.9831
-1.3606 -3.8715 -1.0625 0.9832
-1.2183 -3.9085 -1.0600 0.9832
-1.0752 -3.9403 -1.0575 0.9833
-0.9313 -3.9668 -1.0550 0.9833
-0.7869 -3.9880 -1.0525 0.9833
-0.4973 -4.0147 -1.0474 0.9834
-0.0638 -4.0157 -1.0399 0.9835
0.0798 -4.0057 -1.0374 0.9836
0.1166 -2.0908 -0.5422 0.9914
0.2655 -2.0748 -0.5416 0.9914
0.9183 -3.8417 -1.0227 0.9838
1.0527 -3.7977 -1.0204 0.9838
1.4439 -3.6385 -1.0135 0.9840
1.8138 -3.4408 -1.0071 0.9841
2.1591 -3.2073 -1.0011 0.9842
2.4765 -2.9411 -0.9955 0.9842
2.7634 -2.6454 -0.9905 0.9843
3.0174 -2.3237 -0.9861 0.9844
2.9427 -2.1028 -0.9365 0.9852
3.1674 -2.0963 -0.9835 0.9844
3.3997 -1.7582 -0.9910 0.9843
3.9550 -1.6989 -1.1145 0.9824
1.6449 -0.4421 -0.4410 0.9930
1.6530 -0.3814 -0.4392 0.9930
1.6599 -0.3210 -0.4377 0.9930
2.0100 -0.3145 -0.5267 0.9916
4.2538 -0.5105 -1.1093 0.9825
4.2821 -0.0517 -1.1088 0.9825
4.2813 0.1015 -1.1088 0.9825
4.2753 0.2547 -1.1089 0.9825
4.2642 0.4076 -1.1091 0.9825
4.2480 0.5600 -1.1094 0.9825
4.2267 0.7119 -1.1098 0.9824
4.1687 1.0132 -1.1108 0.9824
4.0906 1.3103 -1.1121 0.9824
0.0980 4.1736 -1.1818 0.9828
-0.0515 4.1836 -1.1844 0.9828
-0.5028 4.1816 -1.1923 0.9826
-0.9542 4.1308 -1.2002 0.9825
-1.9774 3.8214 -1.2181 0.9823
-2.1171 3.7557 -1.2205 0.9822
-2.3896 3.6087 -1.2253 0.9822
-2.5219 3.5275 -1.2276 0.9821
-1.1680 1.2195 -0.4780 0.9930
-1.2251 1.1084 -0.4677 0.9932
-1.3134 1.1054 -0.4860 0.9929
-1.4938 1.1686 -0.5369 0.9921
-3.7461 2.3303 -1.2489 0.9818
-3.8317 2.1974 -1.2504 0.9818
-3.9877 1.9219 -1.2532 0.9818
-4.0578 1.7797 -1.2544 0.9817
-4.1819 1.4876 -1.2565 0.9817
-4.2356 1.3380 -1.2575 0.9817
-4.3259 1.0330 -1.2591 0.9817
-4.4172 0.5642 -1.2606 0.9817
-4.4482 0.2470 -1.2612 0.9816
-4.4546 0.0877 -1.2613 0.9816
-4.3656 -0.8624 -1.2597 0.9817
-4.3298 -1.0176 -1.2591 0.9817
-4.2881 -1.1711 -1.2584 0.9817
-3.9993 -1.7371 -1.2344 0.9820
-3.6676 -1.7515 -1.1506 0.9832
-3.1335 -2.2583 -1.0934 0.9841
-2.8610 -2.5698 -1.0887 0.9841
-2.7629 -2.6663 -1.0870 0.9842
-2.6613 -2.7590 -1.0852 0.9842
-2.4488 -2.9322 -1.0815 0.9842
-2.3382 -3.0125 -1.0796 0.9843
-2.2248 -3.0886 -1.0776 0.9843
-2.1089 -3.1602 -1.0756 0.9843
-1.2828 -2.0798 -0.6918 0.9899
-1.1717 -2.0612 -0.6712 0.9902
-1.2420 -3.5340 -1.0604 0.9845
-1.1123 -3.5685 -1.0582 0.9846
-0.8506 -3.6232 -1.0536 0.9846
-0.7189 -3.6433 -1.0513 0.9847
-0.1901 -3.6761 -1.0421 0.9848
-0.0583 -3.6724 -1.0398 0.9848
0.0730 -3.6640 -1.0375 0.9849
0.1167 -2.0927 -0.5933 0.9913
0.5897 -3.5847 -1.0284 0.9850
0.9643 -3.4786 -1.0219 0.9851
1.2056 -3.3867 -1.0177 0.9852
1.4389 -3.2787 -1.0136 0.9852
1.5523 -3.2188 -1.0116 0.9853
1.7717 -3.0878 -1.0078 0.9853
1.8776 -3.0169 -1.0060 0.9853
1.5273 -2.1023 -0.7356 0.9893
2.2731 -2.6996 -0.9991 0.9854
2.4526 -2.5222 -0.9959 0.9855
2.6972 -2.2352 -0.9917 0.9855
2.9102 -1.9261 -0.9879 0.9856
2.9739 -1.8187 -0.9868 0.9856
3.1153 -1.7552 -1.0123 0.9852
3.3701 -1.7429 -1.0741 0.9844
3.5803 -1.6921 -1.1211 0.9837
3.6354 -1.5616 -1.1201 0.9837
3.6860 -1.4294 -1.1192 0.9837
1.5959 -0.4289 -0.4678 0.9932
1.6266 -0.3145 -0.4690 0.9931
2.0100 -0.3145 -0.5759 0.9916
2.1286 -0.2554 -0.6069 0.9911
3.9250 -0.3291 -1.1150 0.9838
3.9377 -0.0475 -1.1148 0.9838
3.9314 0.2342 -1.1149 0.9838
3.9211 0.3748 -1.1151 0.9838
3.8329 0.9316 -1.1166 0.9837
3.7607 1.2047 -1.1179 0.9837
0.0902 3.8418 -1.1820 0.9840
-0.0474 3.8503 -1.1844 0.9840
-0.1855 3.8540 -1.1868 0.9840
-0.3239 3.8527 -1.1892 0.9839
-0.4625 3.8465 -1.1916 0.9839
-0.7394 3.8190 -1.1965 0.9839
-1.2868 3.7038 -1.2060 0.9837
-1.4213 3.6625 -1.2084 0.9837
-1.5544 3.6162 -1.2107 0.9837
-1.8158 3.5090 -1.2152 0.9836
-1.9438 3.4481 -1.2175 0.9836
-2.0696 3.3825 -1.2197 0.9835
-2.1932 3.3121 -1.2218 0.9835
-2.3143 3.2371 -1.2239 0.9835
-1.0614 1.2801 -0.5115 0.9931
-1.0802 1.2119 -0.4993 0.9932
-1.5339 1.1138 -0.5831 0.9921
-3.5108 2.0134 -1.2448 0.9832
-3.5843 1.8884 -1.2461 0.9832
-3.7762 1.4975 -1.2495 0.9831
-3.8302 1.3625 -1.2504 0.9831
-3.9229 1.0865 -1.2520 0.9831
-4.0223 0.6608 -1.2538 0.9831
-4.0446 0.5166 -1.2541 0.9831
-4.0615 0.3716 -1.2544 0.9831
-4.0728 0.2261 -1.2546 0.9831
-4.0789 -0.0657 -1.2547 0.9831
-4.0628 -0.3572 -1.2545 0.9831
-4.0465 -0.5022 -1.2542 0.9831
-3.9649 -0.9318 -1.2528 0.9831
-3.8353 -1.3489 -1.2505 0.9831
-3.7232 -1.6171 -1.2485 0.9832
-3.6333 -1.7351 -1.2384 0.9833
-3.0994 -1.7627 -1.0967 0.9852
-3.0198 -1.8636 -1.0915 0.9853
-2.6232 -2.3562 -1.0845 0.9854
-2.3451 -2.6120 -1.0797 0.9854
-2.1453 -2.7640 -1.0762 0.9855
-2.0416 -2.8343 -1.0744 0.9855
-1.1715 -2.0609 -0.7291 0.9901
-1.1044 -2.1157 -0.7341 0.9901
-1.4911 -3.1242 -1.0648 0.9856
-1.1412 -3.2472 -1.0587 0.9857
-1.0223 -3.2795 -1.0566 0.9857
-0.7820 -3.3310 -1.0524 0.9858
-0.5396 -3.3648 -1.0482 0.9858
-0.4180 -3.3751 -1.0460 0.9859
-0.2964 -3.3810 -1.0439 0.9859
-0.1749 -3.3826 -1.0418 0.9859
-0.0537 -3.3798 -1.0397 0.9860
0.0672 -3.3727 -1.0376 0.9860
0.7749 -3.2419 -1.0252 0.9861
1.0009 -3.1659 -1.0213 0.9862
1.1114 -3.1222 -1.0193 0.9862
1.5343 -2.9105 -1.0120 0.9863
1.7325 -2.7837 -1.0085 0.9864
1.8280 -2.7155 -1.0068 0.9864
2.0985 -2.4922 -1.0021 0.9865
2.2648 -2.3290 -0.9992 0.9865
2.5606 -1.9719 -0.9940 0.9866
2.6890 -1.7797 -0.9918 0.9866
2.8652 -1.7522 -1.0330 0.9860
3.2539 -1.6828 -1.1267 0.9848
3.3092 -1.5640 -1.1258 0.9848
3.4074 -1.3213 -1.1241 0.9848
1.5451 -0.5364 -0.5031 0.9932
1.5508 -0.4770 -0.4991 0.9932
1.5559 -0.4182 -0.4955 0.9933
1.6266 -0.3145 -0.5096 0.9931
2.0100 -0.3145 -0.6257 0.9915
2.1509 -0.2581 -0.6663 0.9910
3.6411 -0.0440 -1.1200 0.9849
3.6403 0.0863 -1.1200 0.9849
3.6352 0.2165 -1.1201 0.9849
3.6257 0.3465 -1.1203 0.9849
3.6117 0.4761 -1.1205 0.9849
3.5123 0.9880 -1.1222 0.9848
3.4766 1.1137 -1.1229 0.9848
-0.1716 3.5654 -1.1865 0.9851
-0.4277 3.5574 -1.1910 0.9850
-0.5558 3.5464 -1.1932 0.9850
-0.8110 3.5107 -1.1977 0.9849
-1.0639 3.4564 -1.2021 0.9849
-1.1890 3.4223 -1.2043 0.9848
-1.4358 3.3404 -1.2086 0.9848
-1.5571 3.2927 -1.2107 0.9848
-1.6768 3.2404 -1.2128 0.9847
-2.1360 2.9877 -1.2208 0.9846
-1.0053 1.3048 -0.5475 0.9931
-1.0259 1.2373 -0.5343 0.9932
-1.0450 1.1723 -0.5220 0.9934
-1.3134 1.1054 -0.5706 0.9928
-1.4131 1.1054 -0.5963 0.9925
-1.5759 1.0603 -0.6314 0.9920
-3.3036 1.7405 -1.2412 0.9844
-3.3667 1.6226 -1.2423 0.9844
-3.4254 1.5024 -1.2433 0.9844
-3.5292 1.2554 -1.2451 0.9843
-3.5741 1.1290 -1.2459 0.9843
-3.6496 0.8715 -1.2472 0.9843
-3.7259 0.4759 -1.2486 0.9843
-3.7518 0.2083 -1.2490 0.9843
-3.7574 -0.0605 -1.2491 0.9843
-3.7426 -0.3290 -1.2489 0.9843
-3.7277 -0.4626 -1.2486 0.9843
-3.7077 -0.5955 -1.2483 0.9843
-1.4664 -0.4005 -0.5053 0.9936
-1.4806 -0.5207 -0.5217 0.9934
-3.4310 -1.4903 -1.2434 0.9844
-3.3728 -1.6107 -1.2424 0.9844
-2.8457 -1.7561 -1.1115 0.9860
-2.6575 -1.9152 -1.0889 0.9863
-2.4193 -2.1731 -1.0810 0.9864
-1.8843 -2.6159 -1.0716 0.9865
-1.7867 -2.6773 -1.0699 0.9865
-1.2835 -2.0810 -0.8127 0.9897
-1.3772 -2.8854 -1.0628 0.9866
-1.2708 -2.9277 -1.0609 0.9866
-1.1632 -2.9661 -1.0590 0.9867
-0.6111 -3.0973 -1.0494 0.9868
-0.4990 -3.1114 -1.0475 0.9868
-0.3866 -3.1214 -1.0455 0.9868
-0.1618 -3.1292 -1.0416 0.9869
-0.0497 -3.1271 -1.0396 0.9869
0.0622 -3.1210 -1.0377 0.9869
0.1169 -2.0965 -0.6980 0.9912
0.2653 -2.0736 -0.6949 0.9912
0.6110 -3.0319 -1.0281 0.9870
0.7177 -3.0027 -1.0262 0.9871
0.8232 -2.9697 -1.0244 0.9871
0.9273 -2.9331 -1.0226 0.9871
1.0298 -2.8930 -1.0208 0.9871
1.1307 -2.8494 -1.0190 0.9872
1.4224 -2.6983 -1.0139 0.9872
1.5156 -2.6414 -1.0123 0.9872
1.6953 -2.5184 -1.0092 0.9873
1.5287 -2.1043 -0.8646 0.9891
1.6096 -2.0566 -0.8681 0.9891
2.1016 -2.1612 -1.0021 0.9874
2.1748 -2.0820 -1.0008 0.9874
2.2452 -2.0004 -0.9996 0.9874
2.3770 -1.8305 -0.9973 0.9874
2.4610 -1.7586 -1.0055 0.9873
2.6428 -1.7491 -1.0535 0.9867
2.8427 -1.7384 -1.1076 0.9861
2.9664 -1.6713 -1.1318 0.9858
3.1647 -1.2273 -1.1283 0.9858
1.5174 -0.4078 -0.5223 0.9934
1.6266 -0.3145 -0.5507 0.9930
2.0100 -0.3145 -0.6763 0.9915
3.3717 -0.2827 -1.1247 0.9858
3.3792 -0.1619 -1.1246 0.9858
3.3827 -0.0408 -1.1245 0.9858
3.3820 0.0802 -1.1245 0.9858
3.3683 0.3219 -1.1248 0.9858
3.3553 0.4423 -1.1250 0.9858
3.2293 1.0345 -1.1272 0.9858
0.0776 3.3049 -1.1822 0.9861
-0.1595 3.3136 -1.1863 0.9860
-0.2784 3.3115 -1.1884 0.9860
-0.6350 3.2797 -1.1946 0.9859
-0.7532 3.2605 -1.1967 0.9859
-0.8709 3.2370 -1.1987 0.9859
-1.1039 3.1772 -1.2028 0.9858
-1.5560 3.0068 -1.2107 0.9857
-1.6652 2.9539 -1.2126 0.9857
-1.7725 2.8969 -1.2145 0.9857
-1.8779 2.8359 -1.2163 0.9857
-0.9576 1.3395 -0.5888 0.9930
-1.0114 1.1347 -0.5436 0.9936
-1.1372 1.1054 -0.5671 0.9933
-1.3134 1.1054 -0.6139 0.9927
-2.9318 1.8237 -1.2347 0.9854
-2.9980 1.7193 -1.2359 0.9854
-3.0602 1.6123 -1.2370 0.9854
-3.1727 1.3915 -1.2389 0.9854
-3.3100 1.0456 -1.2413 0.9854
-3.3796 0.8070 -1.2425 0.9853
-3.4500 0.4406 -1.2438 0.9853
-3.4738 0.1929 -1.2442 0.9853
-3.4745 -0.1805 -1.2442 0.9853
-3.4516 -0.4283 -1.2438 0.9853
-3.4332 -0.5514 -1.2435 0.9853
-1.5035 -0.2970 -0.5481 0.9935
-1.3383 -0.3145 -0.4916 0.9942
-1.2911 -0.3526 -0.4786 0.9943
-1.2077 -0.5245 -0.4708 0.9944
-3.1241 -1.4920 -1.2381 0.9854
-3.0044 -1.7087 -1.2360 0.9854
-2.6244 -1.7522 -1.1285 0.9867
-2.4537 -1.7683 -1.0816 0.9872
-2.3862 -1.8530 -1.0804 0.9872
-2.2424 -2.0142 -1.0779 0.9873
-2.1662 -2.0905 -1.0766 0.9873
-2.0873 -2.1639 -1.0752 0.9873
-2.0059 -2.2343 -1.0738 0.9873
-1.9221 -2.3015 -1.0723 0.9873
-1.7476 -2.4261 -1.0692 0.9874
-1.6572 -2.4834 -1.0677 0.9874
-1.2839 -2.0815 -0.8746 0.9897
-1.1032 -2.1135 -0.8526 0.9899
-1.2780 -2.6777 -1.0611 0.9875
-0.9789 -2.7855 -1.0558 0.9875
-0.5676 -2.8769 -1.0487 0.9876
-0.4635 -2.8904 -1.0468 0.9876
-0.2548 -2.9060 -1.0432 0.9877
-0.0461 -2.9066 -1.0395 0.9877
0.0578 -2.9013 -1.0377 0.9877
0.1888 -2.0576 -0.7389 0.9913
0.4678 -2.8436 -1.0306 0.9878
0.5683 -2.8203 -1.0288 0.9879
0.6677 -2.7934 -1.0271 0.9879
1.0525 -2.6521 -1.0204 0.9880
1.1449 -2.6087 -1.0188 0.9880
1.2355 -2.5620 -1.0172 0.9880
1.5294 -2.1053 -0.9306 0.9890
1.8139 -2.1542 -1.0071 0.9881
1.9584 -2.0139 -1.0046 0.9881
2.0268 -1.9402 -1.0034 0.9882
2.0925 -1.8643 -1.0022 0.9882
2.4434 -1.7460 -1.0739 0.9873
2.6229 -1.7360 -1.1248 0.9867
2.7658 -1.5583 -1.1353 0.9866
2.8658 -1.3545 -1.1335 0.9866
2.9104 -1.2502 -1.1327 0.9866
1.4912 -0.4586 -0.5579 0.9934
1.4942 -0.4016 -0.5533 0.9934
1.4968 -0.3454 -0.5493 0.9935
1.6266 -0.3145 -0.5924 0.9930
2.1827 -0.2619 -0.7861 0.9907
3.1451 -0.2637 -1.1286 0.9867
3.1522 -0.1510 -1.1285 0.9867
3.1503 0.1877 -1.1286 0.9867
3.1298 0.4126 -1.1289 0.9867
3.1138 0.5244 -1.1292 0.9867
3.0940 0.6357 -1.1295 0.9867
3.0704 0.7463 -1.1300 0.9867
3.0430 0.8560 -1.1304 0.9867
3.0119 0.9648 -1.1310 0.9867
-0.0380 3.0899 -1.1842 0.9869
-0.1488 3.0916 -1.1861 0.9868
-0.2597 3.0894 -1.1881 0.9868
-0.3707 3.0831 -1.1900 0.9868
-0.5922 3.0586 -1.1939 0.9867
-0.8120 3.0181 -1.1977 0.9867
-0.9209 2.9919 -1.1996 0.9867
-1.1360 2.9275 -1.2034 0.9866
-1.3466 2.8474 -1.2071 0.9866
-1.6512 2.6986 -1.2124 0.9865
-1.7491 2.6415 -1.2141 0.9865
-0.9644 1.1632 -0.5790 0.9935
-0.9853 1.1054 -0.5675 0.9937
-1.1372 1.1054 -0.6078 0.9932
-1.2218 1.1054 -0.6314 0.9930
-1.3134 1.1054 -0.6578 0.9927
-1.4131 1.1054 -0.6875 0.9923
-1.5223 1.1054 -0.7209 0.9920
-3.0787 0.9725 -1.2373 0.9863
-3.1130 0.8622 -1.2379 0.9863
-3.1692 0.6379 -1.2389 0.9862
-3.1910 0.5242 -1.2392 0.9862
-3.2085 0.4098 -1.2396 0.9862
-3.2306 0.1794 -1.2399 0.9862
-3.2352 0.0637 -1.2400 0.9862
-3.2354 -0.0521 -1.2400 0.9862
-3.2313 -0.1678 -1.2399 0.9862
-3.2100 -0.3984 -1.2396 0.9862
-1.1740 -0.4129 -0.4769 0.9947
-1.1633 -0.4565 -0.4789 0.9947
-1.1513 -0.5001 -0.4810 0.9946
-1.1383 -0.5436 -0.4834 0.9946
-2.7953 -1.5898 -1.2323 0.9863
-2.7343 -1.6873 -1.2313 0.9863
-2.2624 -1.7568 -1.0977 0.9878
-2.1554 -1.8009 -1.0764 0.9880
-2.0165 -1.9461 -1.0739 0.9881
-1.9433 -2.0146 -1.0727 0.9881
-1.8677 -2.0803 -1.0713 0.9881
-1.5436 -2.3131 -1.0657 0.9882
-1.2842 -2.0821 -0.9375 0.9896
-1.1027 -2.1123 -0.9131 0.9898
-1.1909 -2.4952 -1.0595 0.9882
-0.9125 -2.5965 -1.0547 0.9883
-0.8177 -2.6233 -1.0530 0.9883
-0.6260 -2.6666 -1.0497 0.9883
-0.3351 -2.7052 -1.0446 0.9884
-0.0431 -2.7122 -1.0395 0.9884
0.2652 -2.0728 -0.8008 0.9911
0.4368 -2.6550 -1.0311 0.9885
0.7154 -2.5807 -1.0263 0.9886
0.8060 -2.5495 -1.0247 0.9886
0.8953 -2.5152 -1.0231 0.9886
0.9833 -2.4778 -1.0216 0.9886
1.0697 -2.4374 -1.0201 0.9887
1.2377 -2.3479 -1.0171 0.9887
1.4761 -2.1928 -1.0130 0.9887
1.5302 -2.1063 -0.9977 0.9889
1.8315 -1.8835 -1.0068 0.9888
2.1131 -1.7511 -1.0517 0.9883
2.2630 -1.7427 -1.0946 0.9878
2.4230 -1.7314 -1.1413 0.9873
2.4812 -1.6422 -1.1402 0.9873
2.5881 -1.4581 -1.1384 0.9874
2.7237 -1.1700 -1.1360 0.9874
2.7622 -1.0712 -1.1353 0.9874
1.4673 -0.5094 -0.5952 0.9934
1.4708 -0.4523 -0.5897 0.9934
1.4739 -0.3962 -0.5849 0.9935
1.4766 -0.3407 -0.5807 0.9935
2.0100 -0.3145 -0.7796 0.9913
2.9440 -0.2468 -1.1322 0.9874
2.9507 -0.1413 -1.1320 0.9874
2.9489 0.1757 -1.1321 0.9874
2.9146 0.4909 -1.1327 0.9874
2.8960 0.5950 -1.1330 0.9874
2.8482 0.8012 -1.1338 0.9874
2.8189 0.9030 -1.1343 0.9874
0.0678 2.8881 -1.1824 0.9876
-0.0356 2.8931 -1.1842 0.9876
-0.2431 2.8920 -1.1878 0.9875
-0.4507 2.8759 -1.1914 0.9875
-1.0626 2.7382 -1.2021 0.9874
-0.9180 1.2840 -0.6460 0.9932
-0.9324 1.2102 -0.6252 0.9934
-0.9853 1.1054 -0.6060 0.9936
-1.0587 1.1054 -0.6264 0.9934
-1.1372 1.1054 -0.6491 0.9932
-1.5223 1.1054 -0.7700 0.9919
-1.6275 1.0950 -0.8028 0.9916
-2.5478 1.5848 -1.2280 0.9871
-2.6588 1.4008 -1.2300 0.9871
-2.7991 1.1100 -1.2324 0.9871
-2.9064 0.8049 -1.2343 0.9871
-2.9345 0.7007 -1.2348 0.9870
-2.9587 0.5955 -1.2352 0.9870
-3.0158 0.1674 -1.2362 0.9870
-1.6055 -0.2579 -0.6655 0.9930
-1.6087 -0.3178 -0.6711 0.9929
-1.1307 -0.3527 -0.4848 0.9949
-1.0992 -0.4774 -0.4905 0.9948
-2.6639 -1.3914 -1.2300 0.9871
-2.2465 -1.7444 -1.1641 0.9878
-2.0973 -1.7524 -1.1186 0.9883
-1.8158 -1.8824 -1.0704 0.9888
-1.7453 -1.9439 -1.0692 0.9888
-1.6726 -2.0028 -1.0679 0.9888
-1.5979 -2.0588 -1.0666 0.9888
-1.4430 -2.1623 -1.0639 0.9888
-1.1707 -2.0595 -0.9696 0.9898
-1.1021 -2.1112 -0.9747 0.9898
-1.0280 -2.3684 -1.0567 0.9889
-0.9413 -2.4002 -1.0552 0.9889
-0.8536 -2.4288 -1.0536 0.9889
-0.7650 -2.4542 -1.0521 0.9890
-0.6757 -2.4763 -1.0505 0.9890
-0.5858 -2.4951 -1.0490 0.9890
-0.1313 -2.5402 -1.0410 0.9891
0.1888 -2.0583 -0.8460 0.9911
0.2652 -2.0724 -0.8551 0.9910
0.4092 -2.4871 -1.0316 0.9892
0.4972 -2.4672 -1.0301 0.9892
0.8392 -2.3573 -1.0241 0.9892
0.9217 -2.3225 -1.0227 0.9893
1.0028 -2.2849 -1.0212 0.9893
1.1605 -2.2014 -1.0185 0.9893
1.2369 -2.1556 -1.0172 0.9893
1.3115 -2.1073 -1.0159 0.9893
1.4552 -2.0031 -1.0133 0.9894
1.5242 -1.9475 -1.0121 0.9894
1.5910 -1.8895 -1.0110 0.9894
1.6558 -1.8293 -1.0098 0.9894
1.7183 -1.7670 -1.0088 0.9894
1.8328 -1.7545 -1.0384 0.9891
2.0988 -1.7394 -1.1156 0.9883
2.2163 -1.7067 -1.1449 0.9880
2.3804 -1.4558 -1.1420 0.9880
2.4292 -1.3686 -1.1411 0.9880
2.4749 -1.2799 -1.1403 0.9880
2.5568 -1.0983 -1.1389 0.9880
1.4506 -0.4461 -0.6211 0.9935
1.4538 -0.3908 -0.6161 0.9935
1.4566 -0.3361 -0.6118 0.9936
1.6266 -0.3145 -0.6780 0.9929
2.1833 -0.2620 -0.9000 0.9905
2.7642 -0.2318 -1.1353 0.9881
2.7705 -0.1327 -1.1352 0.9881
2.7733 -0.0335 -1.1351 0.9881
2.7728 0.0658 -1.1351 0.9881
2.6740 0.7522 -1.1369 0.9881
2.6465 0.8477 -1.1374 0.9881
-0.3258 2.7092 -1.1892 0.9882
-0.4231 2.6997 -1.1909 0.9881
-0.6168 2.6701 -1.1943 0.9881
-0.7129 2.6500 -1.1960 0.9881
-0.8084 2.6265 -1.1977 0.9881
-0.9969 2.5690 -1.2009 0.9880
-1.0897 2.5351 -1.2026 0.9880
-1.1812 2.4978 -1.2042 0.9880
-1.3603 2.4132 -1.2073 0.9880
-0.9136 1.1857 -0.6524 0.9935
-1.2218 1.1054 -0.7181 0.9928
-1.3134 1.1054 -0.7481 0.9925
-1.5223 1.1054 -0.8199 0.9918
-2.3871 1.4849 -1.2252 0.9878
-2.5817 1.1323 -1.2286 0.9878
-2.7711 0.5577 -1.2319 0.9877
-2.7900 0.4583 -1.2322 0.9877
-2.8053 0.3583 -1.2325 0.9877
-2.8167 0.2577 -1.2327 0.9877
-2.8245 0.1568 -1.2328 0.9877
-2.8284 0.0557 -1.2329 0.9877
-2.8286 -0.0456 -1.2329 0.9877
-2.8250 -0.1467 -1.2329 0.9877
-1.3383 -0.3145 -0.5991 0.9940
-1.1516 -0.3145 -0.5203 0.9948
-1.0858 -0.3388 -0.4957 0.9950
-1.0678 -0.4638 -0.5074 0.9949
-1.0604 -0.5064 -0.5121 0.9949
-1.0522 -0.5496 -0.5174 0.9948
-2.3926 -1.4765 -1.2253 0.9878
-2.0829 -1.7404 -1.1830 0.9882
-1.4982 -1.9303 -1.0649 0.9894
-1.4265 -1.9803 -1.0636 0.9894
-1.2781 -2.0722 -1.0611 0.9894
-1.1015 -2.1100 -1.0373 0.9897
-1.0447 -2.1888 -1.0570 0.9895
-0.9644 -2.2218 -1.0556 0.9895
-0.8009 -2.2789 -1.0527 0.9895
-0.7178 -2.3029 -1.0513 0.9895
-0.3798 -2.3684 -1.0454 0.9896
-0.2944 -2.3771 -1.0439 0.9896
0.0474 -2.3811 -1.0379 0.9897
0.1173 -2.1046 -0.9186 0.9908
0.1889 -2.0587 -0.9010 0.9910
0.2651 -2.0720 -0.9104 0.9909
0.5490 -2.2967 -1.0292 0.9897
0.6300 -2.2725 -1.0277 0.9898
0.7887 -2.2157 -1.0250 0.9898
0.8663 -2.1831 -1.0236 0.9898
1.0911 -2.0698 -1.0197 0.9898
1.1630 -2.0269 -1.0184 0.9899
1.2333 -1.9816 -1.0172 0.9899
1.7020 -1.7502 -1.0640 0.9894
1.9483 -1.7358 -1.1372 0.9887
2.0284 -1.6810 -1.1481 0.9886
2.1398 -1.5291 -1.1462 0.9886
2.1914 -1.4504 -1.1453 0.9886
2.2403 -1.3700 -1.1444 0.9886
2.4067 -1.0338 -1.1415 0.9886
1.4314 -0.4969 -0.6603 0.9934
1.4326 -0.4406 -0.6532 0.9935
1.4339 -0.3854 -0.6471 0.9935
1.4368 -0.3315 -0.6426 0.9936
1.6266 -0.3145 -0.7220 0.9928
2.5932 -0.3112 -1.1383 0.9887
2.6023 -0.2182 -1.1381 0.9887
2.6082 -0.1249 -1.1380 0.9887
2.6104 0.0619 -1.1380 0.9887
2.6067 0.1553 -1.1380 0.9887
2.5896 0.3414 -1.1383 0.9887
2.5762 0.4339 -1.1386 0.9887
2.5597 0.5259 -1.1389 0.9887
2.5400 0.6174 -1.1392 0.9887
0.0600 2.5539 -1.1825 0.9888
-0.0315 2.5579 -1.1841 0.9888
-0.1231 2.5586 -1.1857 0.9888
-0.3066 2.5501 -1.1889 0.9887
-0.3982 2.5409 -1.1905 0.9887
-0.6708 2.4935 -1.1953 0.9887
-0.7606 2.4712 -1.1968 0.9887
-0.9378 2.4167 -1.1999 0.9886
-1.1110 2.3493 -1.2029 0.9886
-1.1958 2.3109 -1.2044 0.9886
-1.2793 2.2694 -1.2059 0.9886
-0.8784 1.3265 -0.7364 0.9930
-0.8853 1.2383 -0.7046 0.9933
-0.8951 1.1618 -0.6789 0.9936
-1.0587 1.1054 -0.7085 0.9933
-1.3134 1.1054 -0.7946 0.9925
-1.4131 1.1054 -0.8304 0.9921
-1.6439 1.1061 -0.9171 0.9913
-2.2429 1.3952 -1.2227 0.9884
-2.3402 1.2330 -1.2244 0.9884
-2.4253 1.0637 -1.2259 0.9884
-2.5571 0.7082 -1.2282 0.9884
-2.5817 0.6165 -1.2286 0.9884
-2.6348 0.3365 -1.2295 0.9884
-2.6534 -0.1378 -1.2299 0.9884
-2.6465 -0.2326 -1.2297 0.9884
-2.6361 -0.3271 -1.2296 0.9884
-1.6221 -0.3205 -0.7654 0.9927
-1.3383 -0.3145 -0.6363 0.9940
-1.0586 -0.3302 -0.5133 0.9951
-1.0531 -0.3704 -0.5168 0.9951
-1.0403 -0.4519 -0.5250 0.9950
-2.2979 -1.3069 -1.2237 0.9884
-2.1953 -1.4657 -1.2219 0.9884
-2.1398 -1.5421 -1.2209 0.9884
-2.0206 -1.6883 -1.2188 0.9885
-1.5762 -1.7556 -1.0921 0.9897
-1.4749 -1.7660 -1.0651 0.9899
-1.4085 -1.8147 -1.0633 0.9899
-1.2776 -1.9146 -1.0654 0.9899
-1.2018 -1.9485 -1.0597 0.9900
-1.0569 -2.0247 -1.0572 0.9900
-0.9826 -2.0587 -1.0559 0.9900
-0.7535 -2.1439 -1.0519 0.9900
-0.6754 -2.1667 -1.0505 0.9900
-0.5967 -2.1866 -1.0492 0.9901
-0.4376 -2.2178 -1.0464 0.9901
-0.3575 -2.2291 -1.0450 0.9901
-0.1966 -2.2429 -1.0422 0.9901
-0.0356 -2.2451 -1.0394 0.9902
0.0446 -2.2419 -1.0380 0.9902
0.1175 -2.1067 -0.9767 0.9907
0.3621 -2.2008 -1.0324 0.9902
0.4400 -2.1836 -1.0311 0.9902
0.5172 -2.1636 -1.0297 0.9902
0.6689 -2.1156 -1.0271 0.9903
0.7432 -2.0877 -1.0258 0.9903
1.1626 -1.8680 -1.0185 0.9903
1.4750 -1.7517 -1.0600 0.9900
1.5801 -1.7458 -1.0900 0.9897
1.6914 -1.7393 -1.1230 0.9894
1.7980 -1.7212 -1.1522 0.9891
1.9132 -1.5855 -1.1502 0.9891
1.9671 -1.5148 -1.1492 0.9891
2.0184 -1.4423 -1.1483 0.9891
2.1133 -1.2924 -1.1467 0.9891
2.1975 -1.1365 -1.1452 0.9892
2.2355 -1.0566 -1.1445 0.9892
2.2706 -0.9754 -1.1439 0.9892
1.4259 -0.4385 -0.6905 0.9934
1.4281 -0.3295 -0.6784 0.9936
1.6266 -0.3145 -0.7669 0.9927
2.4471 -0.2937 -1.1408 0.9892
2.4613 -0.1179 -1.1406 0.9892
2.4633 0.0584 -1.1405 0.9892
2.4598 0.1465 -1.1406 0.9892
2.4436 0.3221 -1.1409 0.9892
2.3506 0.7530 -1.1425 0.9892
0.0566 2.4101 -1.1826 0.9893
-0.2027 2.4115 -1.1871 0.9893
-0.3756 2.3969 -1.1901 0.9892
-0.6327 2.3517 -1.1946 0.9892
-0.7173 2.3305 -1.1961 0.9892
-0.9664 2.2483 -1.2004 0.9892
-1.2831 2.0971 -1.2059 0.9891
-0.9853 1.1054 -0.7264 0.9934
-1.0587 1.1054 -0.7508 0.9932
-1.4131 1.1054 -0.8800 0.9920
-1.5223 1.1054 -0.9228 0.9917
-2.1126 1.3141 -1.2204 0.9890
-2.1597 1.2386 -1.2212 0.9890
-2.2041 1.1612 -1.2220 0.9890
-2.2841 1.0018 -1.2234 0.9889
-2.3196 0.9199 -1.2240 0.9889
-2.3521 0.8367 -1.2246 0.9889
-2.3816 0.7523 -1.2251 0.9889
-2.4079 0.6669 -1.2256 0.9889
-2.4810 0.3169 -1.2269 0.9889
-2.5015 -0.0403 -1.2272 0.9889
-2.4984 -0.1298 -1.2272 0.9889
-2.4919 -0.2191 -1.2270 0.9889
-1.0205 -0.4005 -0.5378 0.9951
-1.0062 -0.4805 -0.5470 0.9950
-0.9979 -0.5212 -0.5523 0.9950
-2.1174 -1.3067 -1.2205 0.9890
-2.0679 -1.3806 -1.2196 0.9890
-2.0156 -1.4526 -1.2187 0.9890
-1.9035 -1.5905 -1.2168 0.9890
-1.5665 -1.7448 -1.1502 0.9896
-1.4618 -1.7503 -1.1186 0.9899
-1.2694 -1.7622 -1.0653 0.9904
-1.1328 -1.8367 -1.0585 0.9904
-1.0652 -1.8739 -1.0573 0.9904
-0.9998 -1.9153 -1.0598 0.9904
-0.8553 -1.9704 -1.0537 0.9905
-0.7833 -1.9974 -1.0524 0.9905
-0.7105 -2.0217 -1.0511 0.9905
-0.6369 -2.0433 -1.0499 0.9905
-0.5627 -2.0623 -1.0486 0.9905
-0.2614 -2.1108 -1.0433 0.9906
-0.1855 -2.1161 -1.0420 0.9906
0.0421 -2.1157 -1.0380 0.9906
0.2650 -2.0711 -1.0242 0.9907
0.3418 -2.0775 -1.0328 0.9907
0.4883 -2.0427 -1.0302 0.9907
0.6316 -1.9977 -1.0277 0.9907
0.7018 -1.9715 -1.0265 0.9907
0.7710 -1.9428 -1.0253 0.9907
1.1825 -1.7566 -1.0387 0.9906
1.2727 -1.7519 -1.0622 0.9904
1.5705 -1.7351 -1.1480 0.9896
1.6414 -1.6879 -1.1549 0.9896
1.6992 -1.6267 -1.1539 0.9896
1.8082 -1.4985 -1.1520 0.9896
1.8593 -1.4318 -1.1511 0.9896
1.9541 -1.2933 -1.1494 0.9896
2.0389 -1.1488 -1.1480 0.9896
2.1468 -0.9222 -1.1461 0.9896
1.4160 -0.5491 -0.7450 0.9933
1.4177 -0.4922 -0.7361 0.9933
1.4203 -0.3818 -0.7214 0.9935
2.3139 -0.2777 -1.1432 0.9897
2.3220 -0.1947 -1.1430 0.9897
2.3273 -0.1115 -1.1429 0.9897
2.3259 0.1386 -1.1429 0.9897
2.3197 0.2217 -1.1431 0.9897
2.3106 0.3046 -1.1432 0.9897
2.2839 0.4692 -1.1437 0.9897
2.2225 0.7119 -1.1448 0.9897
0.0535 2.2790 -1.1826 0.9898
-0.1099 2.2825 -1.1855 0.9898
-0.1917 2.2798 -1.1869 0.9897
-0.2734 2.2742 -1.1883 0.9897
-0.3551 2.2657 -1.1897 0.9897
-0.4364 2.2542 -1.1912 0.9897
-0.5174 2.2398 -1.1926 0.9897
-0.6778 2.2023 -1.1954 0.9897
-0.8355 2.1531 -1.1981 0.9896
-0.9131 2.1242 -1.1995 0.9896
-1.1391 2.0208 -1.2034 0.9896
-0.8698 1.2166 -0.7759 0.9933
-0.8765 1.1376 -0.7450 0.9935
-0.9853 1.1054 -0.7682 0.9933
-1.0587 1.1054 -0.7940 0.9931
-1.1372 1.1054 -0.8228 0.9929
-1.2218 1.1054 -0.8548 0.9926
-1.5223 1.1054 -0.9760 0.9916
-2.1194 1.0215 -1.2205 0.9895
-2.2198 0.7896 -1.2223 0.9894
-2.2476 0.7100 -1.2228 0.9894
-2.2723 0.6293 -1.2232 0.9894
-2.3285 0.3825 -1.2242 0.9894
-2.3412 0.2990 -1.2244 0.9894
-2.3605 -0.0380 -1.2247 0.9894
-2.3575 -0.1225 -1.2247 0.9894
-1.6356 -0.2627 -0.8594 0.9926
-1.3383 -0.3145 -0.7132 0.9938
-0.9803 -0.4682 -0.5636 0.9951
-1.9987 -1.2334 -1.2184 0.9895
-1.9028 -1.3713 -1.2168 0.9895
-1.5567 -1.7339 -1.2089 0.9896
-1.4529 -1.7397 -1.1759 0.9898
-1.2603 -1.7497 -1.1187 0.9903
-0.9412 -1.8031 -1.0552 0.9909
-0.5318 -1.9489 -1.0480 0.9909
-0.4612 -1.9644 -1.0468 0.9909
-0.3188 -1.9876 -1.0443 0.9910
0.2531 -1.9776 -1.0343 0.9911
0.3233 -1.9650 -1.0331 0.9911
0.4619 -1.9323 -1.0307 0.9911
0.5313 -1.9166 -1.0318 0.9911
0.5975 -1.8900 -1.0283 0.9911
0.7295 -1.8383 -1.0260 0.9911
0.7939 -1.8090 -1.0249 0.9911
0.8572 -1.7775 -1.0238 0.9911
0.9271 -1.7587 -1.0314 0.9911
1.2654 -1.7418 -1.1169 0.9903
1.3591 -1.7365 -1.1440 0.9901
1.4383 -1.7081 -1.1584 0.9900
1.4972 -1.6541 -1.1574 0.9900
1.6089 -1.5402 -1.1555 0.9900
1.7122 -1.4190 -1.1537 0.9900
1.7606 -1.3558 -1.1528 0.9900
1.8067 -1.2911 -1.1520 0.9900
1.8920 -1.1570 -1.1505 0.9901
2.0333 -0.8734 -1.1481 0.9901
1.4090 -0.5464 -0.7840 0.9932
1.4122 -0.4343 -0.7665 0.9934
1.4146 -0.3264 -0.7531 0.9935
1.6266 -0.3145 -0.8595 0.9926
2.0100 -0.3145 -1.0554 0.9909
2.1919 -0.2630 -1.1453 0.9901
2.1997 -0.1844 -1.1452 0.9901
2.2065 0.0523 -1.1450 0.9901
2.2034 0.1313 -1.1451 0.9901
2.1975 0.2100 -1.1452 0.9901
2.1888 0.2885 -1.1453 0.9901
2.1273 0.5984 -1.1464 0.9901
2.1052 0.6744 -1.1468 0.9901
-0.0266 2.1616 -1.1840 0.9902
-0.1815 2.1591 -1.1867 0.9902
-0.2590 2.1537 -1.1881 0.9902
-0.6417 2.0848 -1.1947 0.9901
-0.7909 2.0381 -1.1974 0.9901
-0.8642 2.0106 -1.1986 0.9901
-1.0079 1.9477 -1.2011 0.9900
-1.1469 1.8744 -1.2036 0.9900
-0.8634 1.3039 -0.8565 0.9929
-0.8620 1.2057 -0.8118 0.9933
-0.8689 1.1278 -0.7798 0.9935
-0.9165 1.1054 -0.7865 0.9935
-0.9853 1.1054 -0.8110 0.9933
-1.0587 1.1054 -0.8383 0.9930
-1.3134 1.1054 -0.9402 0.9922
-1.4131 1.1054 -0.9826 0.9919
-1.8416 1.2391 -1.2157 0.9899
-1.8859 1.1731 -1.2165 0.9899
-2.0042 0.9659 -1.2185 0.9899
-2.1485 0.5950 -1.2210 0.9899
-2.2135 0.2827 -1.2222 0.9899
-2.2285 0.1237 -1.2224 0.9899
-2.2290 -0.1158 -1.2225 0.9899
-2.2145 -0.2748 -1.2222 0.9899
-1.6440 -0.3248 -0.9178 0.9924
-1.1516 -0.3145 -0.6538 0.9946
-0.9701 -0.3807 -0.5708 0.9953
-0.9613 -0.4591 -0.5835 0.9952
-0.9562 -0.4994 -0.5909 0.9951
-0.9506 -0.5406 -0.5990 0.9950
-1.8902 -1.1665 -1.2165 0.9899
-1.6467 -1.4791 -1.2123 0.9900
-1.5914 -1.5358 -1.2113 0.9900
-1.3462 -1.7344 -1.2025 0.9900
-0.9957 -1.7516 -1.1035 0.9909
-0.9161 -1.7549 -1.0842 0.9910
-0.7006 -1.7864 -1.0510 0.9913
-0.6355 -1.8084 -1.0498 0.9913
-0.4366 -1.8599 -1.0464 0.9913
-0.2340 -1.8896 -1.0428 0.9914
-0.1661 -1.8946 -1.0416 0.9914
-0.0301 -1.8973 -1.0393 0.9914
0.0377 -1.8950 -1.0381 0.9914
0.1054 -1.8902 -1.0369 0.9914
0.1728 -1.8831 -1.0357 0.9914
0.2398 -1.8736 -1.0346 0.9914
0.3063 -1.8618 -1.0334 0.9914
0.3723 -1.8475 -1.0322 0.9914
0.4377 -1.8310 -1.0311 0.9915
0.5024 -1.8122 -1.0300 0.9915
0.9221 -1.7492 -1.0830 0.9910
1.0837 -1.7412 -1.1233 0.9907
1.1691 -1.7366 -1.1466 0.9905
1.3062 -1.6689 -1.1607 0.9904
