ply
format ascii 1.0
element vertex 1585
property float32 x
property float32 y
property float32 z
property float32 I
end_header
10.1905 -26.9072 -0.1620 0.8913
9.2436 -19.9640 -0.1239 0.9158
16.5578 -29.9371 -0.1926 0.8721
5.8670 -4.6660 -0.0422 0.9705
39.0289 -28.8210 -0.2732 0.8236
39.3120 -24.8929 -0.2620 0.8302
43.8191 -17.7828 -0.2662 0.8277
9.4669 -3.4527 -0.0567 0.9605
7.2364 -2.0663 -0.0424 0.9703
8.5693 -2.1184 -0.0497 0.9653
44.9736 -2.8542 -0.2537 0.8351
44.2937 11.7243 -0.2580 0.8325
44.0514 15.1058 -0.2622 0.8300
43.5594 20.3860 -0.2708 0.8250
43.1361 24.0897 -0.2782 0.8207
-13.8084 -4.6088 -0.4099 0.9434
-8.7991 -3.2913 -0.2645 0.9631
-34.2090 -17.1757 -1.0779 0.8580
-20.0524 -16.2179 -0.7262 0.9019
-18.1939 -44.3092 -1.3487 0.8256
-15.1745 -41.0819 -1.2332 0.8392
-14.2041 -43.1460 -1.2790 0.8338
-10.5253 -41.8397 -1.2148 0.8414
-8.7974 -41.1423 -1.1847 0.8451
-7.1408 -40.4194 -1.1557 0.8485
-5.0165 -35.8393 -1.0190 0.8652
-4.0328 -38.9101 -1.1015 0.8551
-2.5770 -38.1292 -1.0761 0.8582
-0.6421 -20.2568 -0.5707 0.9221
0.1499 -36.5254 -1.0285 0.8640
3.8111 -34.0437 -0.9646 0.8719
5.9904 -32.3556 -0.9265 0.8766
7.9788 -30.6512 -0.8918 0.8810
8.9059 -29.7954 -0.8757 0.8830
1.5640 -4.6228 -0.1374 0.9807
11.1702 -26.5809 -0.8119 0.8910
13.6329 -24.6489 -0.7931 0.8934
14.2949 -23.7935 -0.7816 0.8949
3.0014 -4.6133 -0.1550 0.9782
16.0905 -21.2372 -0.7502 0.8989
16.6290 -20.3890 -0.7408 0.9001
19.6731 -22.4320 -0.8401 0.8875
20.7515 -20.4976 -0.8213 0.8898
21.2461 -19.5344 -0.8127 0.8909
2.9091 -2.1482 -0.1018 0.9856
7.3293 -4.6410 -0.2443 0.9659
23.6398 -13.8094 -0.7709 0.8962
24.4981 -10.9787 -0.7559 0.8981
24.7377 -10.0391 -0.7517 0.8987
5.7553 -2.0990 -0.1725 0.9758
9.6538 -3.1343 -0.2858 0.9602
7.2381 -2.0668 -0.2120 0.9703
25.7130 -4.4339 -0.7347 0.9009
25.8685 -2.5739 -0.7320 0.9012
25.9467 0.2130 -0.7306 0.9014
25.8962 2.0708 -0.7315 0.9013
25.8401 3.0002 -0.7325 0.9011
25.7633 3.9302 -0.7338 0.9010
25.6656 4.8609 -0.7355 0.9007
25.5469 5.7925 -0.7376 0.9005
25.4072 6.7251 -0.7400 0.9002
25.2459 7.6591 -0.7429 0.8998
25.0629 8.5944 -0.7461 0.8994
24.8580 9.5313 -0.7496 0.8989
24.6306 10.4698 -0.7536 0.8984
24.3806 11.4103 -0.7580 0.8979
24.1074 12.3527 -0.7627 0.8973
23.1438 15.1929 -0.7796 0.8951
14.3906 10.9964 -0.5100 0.9301
20.5149 20.9403 -0.8254 0.8893
17.4043 19.0859 -0.7273 0.9018
15.8336 21.6268 -0.7547 0.8983
15.2520 22.4780 -0.7649 0.8970
13.3181 25.0417 -0.7986 0.8927
12.6064 25.8988 -0.8111 0.8911
11.0751 27.6152 -0.8378 0.8878
10.2525 28.4736 -0.8521 0.8859
5.5204 17.2440 -0.5098 0.9301
8.4861 30.1882 -0.8830 0.8821
7.5389 31.0431 -0.8995 0.8800
5.5080 32.7442 -0.9350 0.8756
4.4207 33.5886 -0.9539 0.8732
3.2828 34.4276 -0.9738 0.8708
2.0924 35.2596 -0.9946 0.8682
-14.9336 -2.1528 -0.7652 0.9414
-12.4529 -2.2527 -0.6418 0.9506
-9.5820 -2.0901 -0.4974 0.9615
-8.1722 -2.0915 -0.4278 0.9668
-8.8162 -3.2977 -0.4774 0.9630
-5.3504 -2.2226 -0.2938 0.9771
-30.1210 -15.1232 -1.7093 0.8737
-19.8429 -18.5471 -1.3775 0.8969
-18.9495 -19.0275 -1.3619 0.8980
-3.9770 -4.6105 -0.3088 0.9759
-16.2115 -20.2136 -1.3141 0.9014
-15.2879 -20.5258 -1.2980 0.9026
-14.3626 -20.7977 -1.2818 0.9037
-13.4378 -21.0301 -1.2657 0.9049
-12.5153 -21.2240 -1.2496 0.9060
-2.5188 -4.6437 -0.2679 0.9791
-8.8842 -21.6365 -1.1862 0.9106
-6.2629 -21.5975 -1.1404 0.9139
-3.7624 -21.2968 -1.0968 0.9170
-2.9596 -21.1442 -1.0828 0.9180
-2.1731 -20.9674 -1.0690 0.9190
-1.4036 -20.7674 -1.0556 0.9200
-0.6425 -20.2691 -1.0284 0.9220
1.4984 -19.7592 -1.0049 0.9237
0.7866 -3.5365 -0.1837 0.9856
4.7132 -18.1061 -0.9488 0.9278
5.3002 -17.7323 -0.9386 0.9286
1.5643 -4.6235 -0.2475 0.9806
6.9501 -16.5386 -0.9098 0.9307
8.6858 -15.7043 -0.9101 0.9306
2.8512 -4.7458 -0.2808 0.9781
3.0019 -4.6140 -0.2792 0.9782
1.5673 -2.0686 -0.1316 0.9897
12.1145 -14.8537 -0.9721 0.9261
4.3673 -4.6341 -0.3229 0.9748
13.3373 -13.1741 -0.9507 0.9277
13.7066 -12.6024 -0.9443 0.9281
5.8118 -4.6220 -0.3766 0.9707
8.6210 -4.6305 -0.4963 0.9616
16.2063 -7.2628 -0.9006 0.9313
16.3955 -6.6537 -0.8973 0.9316
5.7574 -2.0998 -0.3108 0.9758
7.2399 -2.0673 -0.3818 0.9703
10.0038 -2.0962 -0.5183 0.9599
17.3357 -1.1002 -0.8809 0.9328
17.3567 -0.4789 -0.8806 0.9328
17.3612 0.1425 -0.8805 0.9328
17.3205 1.3850 -0.8812 0.9328
17.2135 2.6259 -0.8831 0.9326
16.4907 6.3230 -0.8957 0.9317
16.3109 6.9333 -0.8988 0.9315
16.1137 7.5413 -0.9023 0.9312
15.6672 8.7495 -0.9101 0.9307
14.7888 10.4842 -0.9194 0.9300
12.6858 9.6936 -0.8097 0.9381
12.4053 10.2027 -0.8146 0.9377
11.1206 12.1951 -0.8370 0.9360
0.9524 1.3009 -0.0818 0.9936
0.8801 1.2970 -0.0795 0.9937
8.6859 15.0102 -0.8795 0.9329
7.7335 15.8877 -0.8961 0.9317
7.2302 16.3127 -0.9049 0.9310
6.1687 17.1318 -0.9234 0.9297
4.4377 18.2732 -0.9536 0.9275
3.8234 18.6274 -0.9644 0.9267
3.1905 18.9671 -0.9754 0.9259
2.5390 19.2914 -0.9868 0.9250
1.8689 19.5996 -0.9985 0.9242
-21.1846 0.0000 -1.5533 0.9185
-21.1669 -0.7580 -1.5530 0.9186
-9.5785 -2.0893 -0.7188 0.9614
-8.1692 -2.0907 -0.6183 0.9667
-13.8021 -4.6067 -1.0669 0.9433
-5.3476 -2.2215 -0.4246 0.9770
-3.9194 -2.1468 -0.3277 0.9822
-6.7213 -4.6825 -0.6006 0.9677
-15.9395 -11.9740 -1.4618 0.9232
-2.5105 -2.1836 -0.2440 0.9867
-14.2749 -13.3427 -1.4327 0.9246
-13.6900 -13.7463 -1.4225 0.9251
-13.0927 -14.1232 -1.4121 0.9257
-3.9763 -4.6097 -0.4464 0.9759
-11.2402 -15.0913 -1.3797 0.9273
-10.5916 -15.3371 -1.3667 0.9280
-1.2086 -2.0496 -0.1745 0.9905
-1.1294 -2.0822 -0.1737 0.9905
-7.1089 -15.6900 -1.2630 0.9332
-6.4431 -15.6914 -1.2437 0.9342
-5.1664 -15.6933 -1.2114 0.9359
-4.5509 -15.6937 -1.1981 0.9366
-3.3558 -15.6938 -1.1767 0.9377
-2.1966 -15.6928 -1.1619 0.9384
-1.6264 -15.6920 -1.1567 0.9387
-1.0605 -15.6908 -1.1531 0.9389
-0.4973 -15.6894 -1.1510 0.9390
0.0644 -15.6877 -1.1503 0.9390
0.1567 -2.0665 -0.1520 0.9917
2.2835 -15.3926 -1.1410 0.9395
2.8165 -15.2125 -1.1344 0.9398
0.7864 -3.5356 -0.2656 0.9856
4.3276 -14.4783 -1.1080 0.9412
1.5645 -4.6242 -0.3579 0.9806
5.2724 -13.9214 -1.0915 0.9420
5.7255 -13.6244 -1.0836 0.9424
6.1653 -13.3157 -1.0759 0.9428
6.5920 -12.9960 -1.0685 0.9432
7.0052 -12.6657 -1.0613 0.9436
7.4049 -12.3253 -1.0543 0.9440
1.5027 -2.1382 -0.1916 0.9896
1.5675 -2.0689 -0.1903 0.9896
9.1991 -10.4892 -1.0230 0.9456
9.8205 -9.7004 -1.0121 0.9461
10.1105 -9.2960 -1.0070 0.9464
10.3868 -8.8855 -1.0022 0.9467
5.8128 -4.6228 -0.5446 0.9707
7.3166 -4.6330 -0.6350 0.9659
11.5612 -6.7536 -0.9817 0.9477
0.9493 -0.5099 -0.0790 0.9957
4.3328 -2.1311 -0.3540 0.9808
10.6206 -4.7596 -0.8533 0.9544
8.5787 -2.1207 -0.6479 0.9652
11.3561 -1.9582 -0.8449 0.9548
12.9418 -1.7574 -0.9576 0.9490
13.0337 -0.3596 -0.9560 0.9490
13.0275 0.5736 -0.9561 0.9490
12.9674 1.5056 -0.9572 0.9490
12.9170 1.9705 -0.9581 0.9489
12.6849 3.3576 -0.9621 0.9487
12.4624 4.2735 -0.9660 0.9485
11.6677 6.5159 -0.9799 0.9478
10.7855 8.2416 -0.9953 0.9470
9.8786 8.7356 -0.9669 0.9485
9.1896 8.7319 -0.9295 0.9504
8.5624 8.7400 -0.8971 0.9521
8.1657 8.9547 -0.8886 0.9526
0.9524 1.3009 -0.1182 0.9936
0.7779 1.3443 -0.1139 0.9938
5.5740 11.4512 -0.9338 0.9502
4.8085 11.9897 -0.9472 0.9495
3.5753 12.7186 -0.9687 0.9484
2.6984 13.1462 -0.9840 0.9476
1.7797 13.5224 -1.0000 0.9468
1.3054 13.6898 -1.0083 0.9463
0.8215 13.8427 -1.0168 0.9459
-15.0554 -0.5391 -1.4463 0.9413
-15.0201 -1.0771 -1.4457 0.9413
-14.9613 -1.6127 -1.4447 0.9413
-13.0588 -1.8825 -1.2667 0.9484
-12.4349 -2.2495 -1.2132 0.9505
-9.5749 -2.0885 -0.9409 0.9614
-12.5716 -3.7015 -1.2582 0.9487
-12.4018 -4.1393 -1.2552 0.9488
-3.9161 -2.1450 -0.4287 0.9822
-12.2296 -7.8853 -1.3970 0.9432
-2.5084 -2.1818 -0.3192 0.9867
-9.9795 -10.0205 -1.3577 0.9448
-3.9757 -4.6090 -0.5844 0.9758
-8.7029 -10.8513 -1.3354 0.9456
-7.3581 -11.5155 -1.3120 0.9466
-1.2084 -2.0493 -0.2284 0.9905
-5.0299 -12.2498 -1.2713 0.9482
-4.5587 -12.3416 -1.2631 0.9485
-3.6165 -12.4715 -1.2467 0.9492
-1.1604 -4.6128 -0.4566 0.9811
-2.6796 -12.5317 -1.2303 0.9498
-1.7531 -12.5244 -1.2141 0.9505
-0.3929 -12.3930 -1.1904 0.9514
0.1567 -2.0668 -0.1990 0.9917
1.7620 -11.8774 -1.1528 0.9529
0.7862 -3.5346 -0.3476 0.9856
3.3557 -11.2269 -1.1250 0.9540
4.4617 -10.6172 -1.1056 0.9548
5.1529 -10.1588 -1.0936 0.9553
5.4840 -9.9152 -1.0878 0.9555
3.0028 -4.6154 -0.5286 0.9781
1.5033 -2.1391 -0.2510 0.9895
1.5678 -2.0693 -0.2492 0.9896
6.9885 -8.5687 -1.0615 0.9565
7.2583 -8.2762 -1.0568 0.9567
4.3687 -4.6356 -0.6115 0.9747
7.7660 -7.6710 -1.0480 0.9571
8.0037 -7.3589 -1.0438 0.9573
8.2306 -7.0410 -1.0399 0.9574
0.7676 -0.5668 -0.0916 0.9962
0.8083 -0.5118 -0.0919 0.9962
0.8650 -0.5053 -0.0962 0.9960
8.4684 -3.7951 -0.8909 0.9634
8.5800 -3.4819 -0.8890 0.9635
5.7616 -2.1013 -0.5888 0.9757
7.2434 -2.0683 -0.7232 0.9702
8.5819 -2.1215 -0.8487 0.9651
10.3879 -1.0336 -1.0022 0.9589
10.4279 -0.2877 -1.0015 0.9589
10.4227 0.4589 -1.0016 0.9589
10.4032 0.8319 -1.0019 0.9589
10.3723 1.2043 -1.0025 0.9589
10.2767 1.9463 -1.0041 0.9588
10.0486 3.0485 -1.0081 0.9587
9.8402 3.7730 -1.0118 0.9585
9.7191 4.1313 -1.0139 0.9585
9.4433 4.8388 -1.0187 0.9583
9.1229 5.5320 -1.0243 0.9580
8.9460 5.8726 -1.0274 0.9579
8.7579 6.2088 -1.0307 0.9578
8.3489 6.8665 -1.0378 0.9575
6.8233 8.6523 -1.0579 0.9567
0.9524 1.3009 -0.1548 0.9935
0.8800 1.2969 -0.1505 0.9937
0.8137 1.2968 -0.1470 0.9939
0.7782 1.3448 -0.1492 0.9938
3.7444 9.3365 -0.9657 0.9604
3.1026 9.6915 -0.9769 0.9599
2.7702 9.8545 -0.9828 0.9597
1.7294 10.2812 -1.0009 0.9590
0.6295 10.6070 -1.0201 0.9582
-11.6798 0.0000 -1.3874 0.9540
-11.5400 -1.6636 -1.3850 0.9541
-8.1631 -2.0892 -1.0009 0.9666
-9.7649 -2.8752 -1.2092 0.9598
-9.4975 -3.5525 -1.2045 0.9600
-5.3420 -2.2192 -0.6871 0.9770
-9.5537 -6.1599 -1.3503 0.9552
-6.7163 -4.6790 -0.9723 0.9676
-2.5064 -2.1800 -0.3946 0.9867
-8.1543 -7.6218 -1.3259 0.9560
-7.8442 -7.8765 -1.3204 0.9562
-7.5255 -8.1178 -1.3149 0.9564
-3.9751 -4.6083 -0.7229 0.9758
-1.2082 -2.0490 -0.2826 0.9905
-1.1291 -2.0815 -0.2813 0.9905
-4.7443 -9.5468 -1.2663 0.9580
-2.1494 -10.0521 -1.2210 0.9594
-1.7789 -10.0690 -1.2146 0.9596
-1.0430 -10.0629 -1.2017 0.9601
-0.6786 -10.0403 -1.1954 0.9603
0.0409 -9.9575 -1.1828 0.9607
0.1568 -2.0671 -0.2462 0.9917
0.2309 -2.0627 -0.2465 0.9917
1.4312 -9.6476 -1.1585 0.9615
2.4203 -9.2980 -1.1413 0.9620
2.7382 -9.1607 -1.1357 0.9622
1.5650 -4.6256 -0.5800 0.9805
3.3543 -8.8567 -1.1250 0.9626
3.6521 -8.6907 -1.1198 0.9627
3.9428 -8.5156 -1.1147 0.9629
4.2262 -8.3320 -1.1098 0.9631
4.7702 -7.9398 -1.1003 0.9634
1.5040 -2.1400 -0.3107 0.9895
5.7621 -7.0650 -1.0829 0.9639
4.3694 -4.6364 -0.7568 0.9747
6.4176 -6.3391 -1.0715 0.9643
0.7271 -0.6220 -0.1137 0.9962
0.7475 -0.5945 -0.1134 0.9962
0.7678 -0.5670 -0.1134 0.9962
0.7882 -0.5396 -0.1135 0.9962
0.8086 -0.5120 -0.1137 0.9962
0.9492 -0.5098 -0.1280 0.9957
4.3360 -2.1326 -0.5740 0.9807
7.0363 -3.1533 -0.9159 0.9694
7.1317 -2.8942 -0.9142 0.9695
7.4292 -1.8365 -0.9090 0.9696
8.3008 -1.7393 -1.0074 0.9664
8.5767 -1.4789 -1.0338 0.9655
8.6181 -1.1702 -1.0331 0.9656
8.6841 -0.2396 -1.0319 0.9656
8.6003 1.3120 -1.0334 0.9656
8.5544 1.6201 -1.0342 0.9655
8.4989 1.9270 -1.0352 0.9655
1.5726 0.4163 -0.1932 0.9935
8.2746 2.8375 -1.0391 0.9654
1.7745 0.8305 -0.2327 0.9921
1.6675 0.9312 -0.2269 0.9923
1.4956 0.9818 -0.2125 0.9928
6.9109 5.6839 -1.0629 0.9646
6.7237 5.9458 -1.0662 0.9645
6.5275 6.2024 -1.0696 0.9644
6.3225 6.4536 -1.0732 0.9643
1.0144 1.1957 -0.1863 0.9937
0.9425 1.1951 -0.1808 0.9939
0.8565 1.2623 -0.1812 0.9939
3.4940 8.7120 -1.1150 0.9629
3.1397 8.7198 -1.1009 0.9634
2.1199 8.7293 -1.0671 0.9645
1.4692 8.7342 -1.0521 0.9650
0.8332 8.7380 -1.0427 0.9653
-9.5266 0.0000 -1.3498 0.9622
-9.4641 -1.0202 -1.3487 0.9623
-8.1427 -1.7761 -1.1809 0.9669
-7.7620 -2.9033 -1.1742 0.9671
-5.3392 -2.2180 -0.8192 0.9769
-7.5058 -3.4379 -1.1697 0.9672
-3.9151 -2.1444 -0.6325 0.9821
-6.8729 -4.4315 -1.1587 0.9675
-6.6916 -4.6618 -1.1555 0.9676
-2.5597 -2.0702 -0.4665 0.9868
-6.4555 -6.4820 -1.2962 0.9637
-6.1978 -6.6856 -1.2917 0.9638
-5.3859 -7.2311 -1.2775 0.9642
-5.1039 -7.3907 -1.2726 0.9644
-3.9329 -7.9141 -1.2522 0.9649
-3.0233 -8.1849 -1.2363 0.9654
-2.4090 -8.3075 -1.2256 0.9657
-1.1780 -8.4161 -1.2041 0.9663
-0.8722 -8.4154 -1.1988 0.9664
-0.5680 -8.4038 -1.1934 0.9665
-0.2657 -8.3815 -1.1882 0.9667
0.0860 -2.1537 -0.3054 0.9913
0.1568 -2.0674 -0.2938 0.9917
0.2309 -2.0623 -0.2940 0.9917
1.4873 -8.0332 -1.1576 0.9675
0.7858 -3.5326 -0.5128 0.9855
2.3106 -7.7304 -1.1432 0.9679
1.5652 -4.6263 -0.6920 0.9805
3.3369 -7.2069 -1.1253 0.9684
3.5791 -7.0562 -1.1211 0.9685
3.8153 -6.8982 -1.1169 0.9687
4.0451 -6.7330 -1.1129 0.9688
1.5683 -2.0699 -0.3680 0.9896
4.8980 -6.0055 -1.0980 0.9692
4.7953 -4.7367 -0.9550 0.9731
0.7884 -0.5397 -0.1354 0.9961
0.8089 -0.5122 -0.1356 0.9961
4.3376 -2.1334 -0.6849 0.9807
6.0139 -2.6951 -0.9338 0.9737
6.0970 -2.4743 -0.9323 0.9738
5.7658 -2.1029 -0.8696 0.9755
6.2414 -2.0264 -0.9298 0.9738
7.0378 -1.7398 -1.0272 0.9711
1.5131 -0.3170 -0.2190 0.9938
1.4967 -0.2581 -0.2152 0.9939
1.4744 -0.2002 -0.2108 0.9940
1.4465 -0.1439 -0.2060 0.9941
7.4304 0.3272 -1.0538 0.9704
7.3926 0.8583 -1.0545 0.9704
7.3610 1.1229 -1.0550 0.9704
7.3210 1.3865 -1.0557 0.9703
7.1503 2.1693 -1.0587 0.9703
6.9947 2.6820 -1.0614 0.9702
6.6994 3.4328 -1.0666 0.9700
6.5846 3.6772 -1.0686 0.9700
6.1920 4.3897 -1.0754 0.9698
5.8909 4.8449 -1.0807 0.9697
5.7287 5.0659 -1.0835 0.9696
5.1969 5.6990 -1.0928 0.9693
4.8058 6.0940 -1.0996 0.9691
4.5996 6.2826 -1.1032 0.9690
4.3866 6.4649 -1.1070 0.9689
4.1668 6.6406 -1.1108 0.9688
3.9405 6.8096 -1.1147 0.9687
3.2238 7.2734 -1.1273 0.9684
2.9729 7.4128 -1.1316 0.9682
2.4546 7.6673 -1.1407 0.9680
2.1875 7.7819 -1.1453 0.9679
1.6389 7.9846 -1.1549 0.9676
1.3579 8.0723 -1.1598 0.9675
1.0727 8.1506 -1.1648 0.9673
0.4912 8.2767 -1.1748 0.9671
-8.0357 0.0000 -1.3238 0.9679
-7.9839 -0.8606 -1.3229 0.9680
-7.8298 -1.7079 -1.3202 0.9680
-6.8712 -1.7586 -1.1684 0.9717
-6.5563 -2.4523 -1.1532 0.9720
-6.2243 -3.1251 -1.1474 0.9722
-3.9136 -2.1437 -0.7351 0.9821
-5.9608 -3.5480 -1.1428 0.9723
-5.8173 -3.7508 -1.1403 0.9723
-5.5079 -4.1376 -1.1349 0.9725
-2.5593 -2.0699 -0.5422 0.9867
-2.5022 -2.1763 -0.5463 0.9866
-4.6194 -4.9829 -1.1194 0.9728
-4.3440 -6.2903 -1.2594 0.9695
-1.1287 -2.0809 -0.3900 0.9904
-1.0725 -2.1582 -0.3970 0.9903
-2.8433 -6.9245 -1.2332 0.9701
-2.3235 -7.0578 -1.2241 0.9703
-2.0617 -7.1098 -1.2195 0.9704
-1.5363 -7.1846 -1.2103 0.9707
-1.2733 -7.2076 -1.2058 0.9708
-0.4879 -7.2195 -1.1920 0.9711
0.0295 -7.1811 -1.1830 0.9713
0.1568 -2.0678 -0.3416 0.9916
1.2831 -6.9305 -1.1611 0.9718
1.7628 -6.7718 -1.1528 0.9720
1.9969 -6.6806 -1.1487 0.9721
1.5655 -4.6270 -0.8047 0.9804
2.8899 -6.2415 -1.1331 0.9725
3.1013 -6.1141 -1.1294 0.9726
3.3075 -5.9801 -1.1258 0.9727
3.0042 -4.6176 -0.9075 0.9779
1.5053 -2.1419 -0.4313 0.9894
1.5685 -2.0702 -0.4279 0.9895
0.7304 -0.6248 -0.1583 0.9961
0.7887 -0.5399 -0.1575 0.9961
0.8091 -0.5123 -0.1578 0.9961
0.9370 -0.5033 -0.1752 0.9957
0.9677 -0.4336 -0.1747 0.9957
5.4481 -1.7688 -0.9436 0.9770
6.0928 -1.7397 -1.0438 0.9746
6.4104 -1.1054 -1.0716 0.9740
6.4937 -0.1792 -1.0702 0.9740
6.4958 0.0533 -1.0701 0.9740
6.4903 0.2858 -1.0702 0.9740
6.4568 0.7497 -1.0708 0.9740
6.3502 1.4398 -1.0727 0.9739
6.2998 1.6675 -1.0736 0.9739
6.2420 1.8937 -1.0746 0.9739
6.1767 2.1181 -1.0757 0.9739
6.0243 2.5608 -1.0784 0.9738
5.9371 2.7786 -1.0799 0.9738
5.8428 2.9939 -1.0815 0.9737
5.5171 3.6218 -1.0872 0.9736
5.1290 4.2183 -1.0940 0.9734
4.9861 4.4092 -1.0965 0.9734
4.6806 4.7776 -1.1018 0.9733
4.5182 4.9548 -1.1047 0.9732
3.8073 5.6111 -1.1171 0.9729
3.4169 5.9048 -1.1239 0.9727
3.0049 6.1734 -1.1311 0.9726
2.5727 6.4150 -1.1386 0.9724
1.8900 6.7234 -1.1505 0.9721
1.6541 6.8110 -1.1547 0.9720
1.4144 6.8907 -1.1588 0.9719
1.1712 6.9623 -1.1631 0.9718
0.6752 7.0806 -1.1717 0.9716
0.4229 7.1269 -1.1761 0.9715
-6.9413 0.0000 -1.3047 0.9721
-6.9217 -0.4963 -1.3043 0.9722
-6.8972 -0.7435 -1.3039 0.9722
-6.7659 -1.4758 -1.3016 0.9722
-5.7484 -1.9186 -1.1391 0.9756
-5.6692 -2.1205 -1.1377 0.9757
-5.3336 -2.2157 -1.0856 0.9768
-5.3857 -2.7041 -1.1327 0.9758
-3.9122 -2.1428 -0.8384 0.9820
-5.0377 -3.2482 -1.1267 0.9759
-4.9084 -3.4195 -1.1244 0.9759
-4.7728 -3.5854 -1.1220 0.9760
-2.5588 -2.0695 -0.6186 0.9867
-4.3311 -4.0483 -1.1143 0.9762
-4.0102 -4.3258 -1.1087 0.9763
-3.8427 -4.4548 -1.1058 0.9763
-3.6708 -4.5770 -1.1028 0.9764
-3.4949 -4.6923 -1.0997 0.9765
-3.3153 -4.8007 -1.0966 0.9765
-1.2077 -2.0480 -0.4469 0.9904
-2.5654 -5.1622 -1.0835 0.9768
-0.9931 -2.1918 -0.4523 0.9903
-2.0279 -6.1598 -1.2189 0.9740
-1.8002 -6.2081 -1.2150 0.9740
-1.1597 -4.6100 -0.8935 0.9808
-1.3427 -6.2794 -1.2070 0.9742
-1.1134 -6.3025 -1.2030 0.9743
-0.0694 -2.1892 -0.4117 0.9911
0.0258 -6.2942 -1.1831 0.9747
0.0861 -2.1575 -0.4059 0.9913
0.2308 -2.0616 -0.3899 0.9916
1.1272 -6.0885 -1.1639 0.9751
0.7853 -3.5307 -0.6799 0.9854
1.8950 -5.0035 -1.0056 0.9785
2.2347 -4.8265 -0.9997 0.9786
2.3991 -4.7298 -0.9968 0.9786
1.1888 -2.1494 -0.4617 0.9901
2.7161 -4.5209 -0.9913 0.9788
1.5060 -2.1429 -0.4923 0.9894
3.6880 -3.6429 -0.9744 0.9791
3.8078 -3.5010 -0.9723 0.9792
0.8098 -0.5128 -0.1802 0.9961
0.8354 -0.4880 -0.1819 0.9961
0.8652 -0.4647 -0.1846 0.9960
0.9279 -0.4158 -0.1911 0.9959
5.3574 -1.7394 -1.0587 0.9773
5.5583 -1.5871 -1.0865 0.9767
5.6494 -1.1838 -1.0849 0.9768
5.7510 -0.3650 -1.0831 0.9768
5.7596 -0.1589 -1.0830 0.9768
5.7614 0.0473 -1.0830 0.9768
5.7565 0.2535 -1.0830 0.9768
5.7013 0.8697 -1.0840 0.9768
5.4752 1.8775 -1.0880 0.9767
5.4102 2.0744 -1.0891 0.9767
4.9880 3.0247 -1.0965 0.9765
1.9963 1.3105 -0.4489 0.9903
1.8871 1.3378 -0.4348 0.9906
4.5377 3.7320 -1.1043 0.9764
4.1376 4.2234 -1.1113 0.9762
3.9929 4.3787 -1.1138 0.9762
3.3602 4.9522 -1.1249 0.9759
3.1893 5.0827 -1.1279 0.9759
3.0135 5.2078 -1.1309 0.9758
2.8331 5.3270 -1.1341 0.9757
2.6482 5.4405 -1.1373 0.9757
2.4589 5.5478 -1.1406 0.9756
1.0287 6.1152 -1.1656 0.9751
0.8118 6.1681 -1.1694 0.9750
0.5925 6.2135 -1.1732 0.9749
-6.1030 0.0000 -1.2901 0.9754
-6.0988 -0.2184 -1.2900 0.9754
-6.0860 -0.4364 -1.2898 0.9754
-6.0647 -0.6537 -1.2894 0.9754
-6.0350 -0.8700 -1.2889 0.9754
-5.9969 -1.0849 -1.2882 0.9754
-5.9505 -1.2979 -1.2874 0.9754
-5.8959 -1.5089 -1.2864 0.9754
-5.2521 -1.7530 -1.1704 0.9776
-4.9884 -1.8659 -1.1258 0.9785
-4.8303 -2.2125 -1.1230 0.9785
-3.9107 -2.1420 -0.9425 0.9819
-4.5451 -2.7054 -1.1181 0.9786
-4.4380 -2.8615 -1.1162 0.9786
-4.3251 -3.0131 -1.1142 0.9787
-4.2067 -3.1601 -1.1122 0.9787
-2.4980 -2.1727 -0.6998 0.9866
-3.5395 -3.8181 -1.1005 0.9789
-3.3927 -3.9331 -1.0979 0.9790
-2.9299 -4.2426 -1.0899 0.9791
-2.7690 -4.3335 -1.0871 0.9792
-1.2075 -2.0477 -0.5025 0.9903
-2.2703 -4.5685 -1.0784 0.9794
-2.0996 -4.6339 -1.0754 0.9794
-1.7528 -4.7454 -1.0693 0.9795
-1.5773 -4.7913 -1.0663 0.9796
-1.4008 -4.8307 -1.0632 0.9796
-1.1595 -4.6092 -1.0047 0.9808
-0.5109 -4.9298 -1.0476 0.9799
-0.1443 -2.1348 -0.4523 0.9913
-0.1561 -4.9244 -1.0415 0.9801
0.0202 -4.9123 -1.0384 0.9801
0.1569 -2.0684 -0.4385 0.9916
0.2308 -2.0612 -0.4384 0.9916
0.7851 -3.5297 -0.7643 0.9853
1.2127 -4.6586 -1.0176 0.9805
1.3748 -4.5994 -1.0147 0.9806
1.5343 -4.5348 -1.0119 0.9806
1.6910 -4.4649 -1.0092 0.9807
1.8448 -4.3898 -1.0065 0.9807
1.0159 -2.1941 -0.5111 0.9902
2.2869 -4.1349 -0.9988 0.9809
2.4275 -4.0405 -0.9964 0.9809
2.5643 -3.9415 -0.9940 0.9810
1.5066 -2.1438 -0.5539 0.9893
1.5690 -2.0709 -0.5492 0.9894
2.9518 -3.6192 -0.9872 0.9811
3.0728 -3.5037 -0.9851 0.9811
3.3021 -3.2617 -0.9811 0.9812
3.4101 -3.1354 -0.9792 0.9812
0.7336 -0.6276 -0.2041 0.9961
0.7528 -0.5987 -0.2033 0.9961
0.7910 -0.5415 -0.2026 0.9961
0.8101 -0.5129 -0.2027 0.9961
4.1053 -2.0192 -0.9671 0.9815
4.1701 -1.8688 -0.9659 0.9815
4.3269 -1.7560 -0.9871 0.9811
4.7673 -1.7387 -1.0726 0.9795
4.9376 -1.6031 -1.0973 0.9790
5.0321 -1.2439 -1.0957 0.9790
5.0703 -1.0624 -1.0950 0.9790
5.1024 -0.8798 -1.0945 0.9791
5.1285 -0.6964 -1.0940 0.9791
5.1485 -0.5123 -1.0937 0.9791
5.1624 -0.3276 -1.0934 0.9791
5.1674 0.2275 -1.0933 0.9791
5.1568 0.4124 -1.0935 0.9791
5.1401 0.5968 -1.0938 0.9791
5.0535 1.1458 -1.0953 0.9790
5.0125 1.3268 -1.0960 0.9790
4.9655 1.5064 -1.0969 0.9790
4.8537 1.8610 -1.0988 0.9790
4.7889 2.0356 -1.0999 0.9790
4.7183 2.2082 -1.1012 0.9789
2.0371 1.1376 -0.4932 0.9905
1.6759 1.1881 -0.4342 0.9916
3.9500 3.4930 -1.1146 0.9787
3.8297 3.6389 -1.1167 0.9786
3.4385 4.0530 -1.1235 0.9785
3.2984 4.1826 -1.1260 0.9785
2.8508 4.5433 -1.1338 0.9783
2.5310 4.7589 -1.1394 0.9782
2.3650 4.8587 -1.1422 0.9781
2.1953 4.9531 -1.1452 0.9781
1.6652 5.2015 -1.1545 0.9779
1.4821 5.2723 -1.1577 0.9779
0.9162 5.4469 -1.1675 0.9777
0.5273 5.5304 -1.1743 0.9775
0.3301 5.5620 -1.1778 0.9775
-5.4398 0.0000 -1.2785 0.9779
-5.4248 -0.3890 -1.2782 0.9779
-5.4060 -0.5827 -1.2779 0.9779
-5.3461 -0.9671 -1.2768 0.9779
-5.3051 -1.1572 -1.2761 0.9779
-5.2013 -1.5315 -1.2743 0.9780
-5.1388 -1.7151 -1.2732 0.9780
-4.6797 -1.7504 -1.1743 0.9797
-4.3821 -1.8204 -1.1152 0.9807
-4.2306 -2.1241 -1.1126 0.9807
-3.9092 -2.1412 -1.0475 0.9819
-4.0567 -2.4146 -1.1095 0.9808
-3.8617 -2.6903 -1.1061 0.9808
-3.7568 -2.8221 -1.1043 0.9809
-2.5579 -2.0688 -0.7732 0.9866
-2.8999 -3.6158 -1.0893 0.9811
-2.7626 -3.7091 -1.0869 0.9812
-2.6222 -3.7970 -1.0845 0.9812
-1.2078 -2.0483 -0.5589 0.9903
-1.1282 -2.0799 -0.5561 0.9903
-2.0341 -4.0932 -1.0742 0.9814
-1.7275 -4.2071 -1.0689 0.9815
-0.7870 -2.1308 -0.5339 0.9907
-1.2569 -4.3345 -1.0607 0.9816
-0.6190 -4.4225 -1.0495 0.9818
-0.2995 -4.4318 -1.0440 0.9819
-0.1404 -4.4279 -1.0412 0.9820
0.0181 -4.4183 -1.0384 0.9820
0.7849 -3.5287 -0.8496 0.9853
1.0929 -4.1986 -1.0196 0.9823
1.2394 -4.1464 -1.0171 0.9824
1.3835 -4.0892 -1.0146 0.9824
2.1923 -3.6490 -1.0005 0.9827
1.5693 -2.0712 -0.6107 0.9894
2.8843 -3.0605 -0.9884 0.9829
3.0848 -2.8363 -0.9849 0.9829
3.1790 -2.7195 -0.9832 0.9830
3.2691 -2.5999 -0.9817 0.9830
3.0123 -2.0621 -0.8579 0.9851
3.6545 -1.9629 -0.9749 0.9831
3.7181 -1.8288 -0.9738 0.9831
3.9127 -1.7535 -1.0077 0.9825
4.4224 -1.6129 -1.1063 0.9808
1.7193 -0.5582 -0.4248 0.9926
1.7293 -0.4938 -0.4227 0.9926
1.8240 -0.3145 -0.4350 0.9924
4.6662 -0.4643 -1.1021 0.9809
4.6860 -0.1293 -1.1017 0.9809
4.6875 0.0385 -1.1017 0.9809
4.6834 0.2062 -1.1018 0.9809
4.6738 0.3737 -1.1019 0.9809
4.6377 0.7075 -1.1026 0.9809
4.5794 1.0383 -1.1036 0.9809
4.5420 1.2023 -1.1042 0.9809
4.4508 1.5262 -1.1058 0.9809
4.3971 1.6860 -1.1068 0.9808
4.3380 1.8440 -1.1078 0.9808
1.8229 1.1054 -0.5010 0.9913
1.6041 1.1372 -0.4621 0.9920
1.5780 1.2979 -0.4802 0.9916
3.4641 3.2916 -1.1231 0.9806
3.3500 3.4195 -1.1251 0.9805
3.1085 3.6640 -1.1293 0.9805
2.9812 3.7803 -1.1315 0.9804
2.7143 4.0003 -1.1361 0.9803
2.2849 4.2963 -1.1436 0.9802
1.9809 4.4694 -1.1490 0.9801
1.6642 4.6217 -1.1545 0.9800
1.5014 4.6898 -1.1573 0.9800
1.3359 4.7524 -1.1602 0.9799
0.9976 4.8604 -1.1661 0.9798
0.8252 4.9056 -1.1691 0.9798
0.6508 4.9448 -1.1722 0.9797
-4.9015 0.0000 -1.2691 0.9800
-4.8981 -0.1754 -1.2690 0.9800
-4.8478 -0.6988 -1.2681 0.9800
-4.8176 -0.8715 -1.2676 0.9800
-4.7810 -1.0428 -1.2670 0.9800
-4.7377 -1.2125 -1.2662 0.9800
-4.6881 -1.3804 -1.2654 0.9800
-4.5699 -1.7093 -1.2633 0.9800
-4.2075 -1.7479 -1.1797 0.9814
-3.8855 -1.7797 -1.1065 0.9825
-3.5742 -2.3045 -1.1011 0.9826
-2.5574 -2.0684 -0.8516 0.9865
-2.8584 -3.0834 -1.0886 0.9828
-1.2081 -2.0488 -0.6158 0.9902
-1.8406 -3.7037 -1.0709 0.9831
-1.7030 -3.7588 -1.0685 0.9831
-1.4233 -3.8533 -1.0636 0.9832
-1.2815 -3.8927 -1.0611 0.9832
-1.1387 -3.9268 -1.0586 0.9832
-0.8509 -3.9792 -1.0536 0.9833
-0.7062 -3.9975 -1.0511 0.9834
-0.4165 -4.0184 -1.0460 0.9834
-0.2718 -4.0209 -1.0435 0.9835
0.0864 -2.1634 -0.5606 0.9911
0.1569 -2.0691 -0.5373 0.9915
0.2307 -2.0605 -0.5368 0.9915
0.3198 -2.1557 -0.5643 0.9910
0.7215 -3.8969 -1.0261 0.9838
1.1272 -3.7710 -1.0191 0.9839
1.3878 -3.6643 -1.0145 0.9839
1.6392 -3.5402 -1.0101 0.9840
1.9967 -3.3235 -1.0039 0.9841
1.5080 -2.1458 -0.6791 0.9892
2.5326 -2.8878 -0.9945 0.9843
2.6299 -2.7906 -0.9928 0.9843
2.7236 -2.6902 -0.9912 0.9843
2.8136 -2.5869 -0.9896 0.9843
2.9000 -2.4808 -0.9881 0.9844
2.9202 -2.1564 -0.9399 0.9851
3.0129 -2.0624 -0.9454 0.9850
3.2068 -2.0306 -0.9828 0.9844
3.2810 -1.9166 -0.9838 0.9844
3.3361 -1.7919 -0.9805 0.9845
3.8751 -1.7366 -1.0995 0.9826
3.9865 -1.6178 -1.1139 0.9824
1.6310 -0.5295 -0.4440 0.9929
1.6409 -0.4685 -0.4418 0.9930
1.6496 -0.4078 -0.4400 0.9930
1.6570 -0.3472 -0.4384 0.9930
1.8240 -0.3145 -0.4792 0.9924
2.0843 -0.2830 -0.5446 0.9913
4.2808 -0.1181 -1.1088 0.9825
4.2785 0.1884 -1.1088 0.9825
4.2696 0.3414 -1.1090 0.9825
4.2556 0.4941 -1.1092 0.9825
4.2365 0.6463 -1.1096 0.9824
4.1485 1.0981 -1.1111 0.9824
4.0647 1.3938 -1.1126 0.9824
2.1338 1.0934 -0.6208 0.9901
1.8229 1.1054 -0.5520 0.9912
1.6839 1.1054 -0.5215 0.9917
1.5592 1.1054 -0.4949 0.9921
1.5306 1.2588 -0.5131 0.9918
1.5153 1.3400 -0.5237 0.9917
3.1593 3.0019 -1.1284 0.9822
2.9462 3.2308 -1.1321 0.9821
2.8336 3.3400 -1.1341 0.9821
2.3455 3.7380 -1.1426 0.9819
2.2147 3.8272 -1.1449 0.9819
2.0805 3.9120 -1.1472 0.9819
1.9433 3.9922 -1.1496 0.9818
1.5140 4.2047 -1.1571 0.9817
1.2148 4.3217 -1.1623 0.9816
0.5913 4.4925 -1.1732 0.9815
0.4311 4.5215 -1.1760 0.9814
0.2697 4.5449 -1.1788 0.9814
-4.4524 -0.1594 -1.2612 0.9816
-4.4433 -0.3186 -1.2611 0.9817
-4.4281 -0.4773 -1.2608 0.9817
-4.4069 -0.6353 -1.2605 0.9817
-4.3075 -1.1024 -1.2587 0.9817
-4.0939 -1.7007 -1.2550 0.9817
-3.8105 -1.7453 -1.1865 0.9827
-3.5026 -1.7586 -1.1095 0.9838
-3.3293 -1.9817 -1.0968 0.9840
-3.2523 -2.0970 -1.0955 0.9840
-2.4915 -2.1670 -0.9348 0.9864
-2.4972 -2.8950 -1.0823 0.9842
-2.2756 -3.0552 -1.0784 0.9843
-2.1607 -3.1288 -1.0764 0.9843
-2.0435 -3.1981 -1.0744 0.9843
-1.2085 -2.0493 -0.6735 0.9902
-1.1181 -2.2499 -0.7113 0.9896
-1.4271 -3.4756 -1.0636 0.9845
-1.1699 -3.5537 -1.0591 0.9846
-1.0398 -3.5856 -1.0569 0.9846
-0.9088 -3.6127 -1.0546 0.9846
-0.6453 -3.6524 -1.0500 0.9847
-0.3807 -3.6730 -1.0454 0.9848
-0.2484 -3.6761 -1.0431 0.9848
-0.1165 -3.6745 -1.0408 0.9848
0.0151 -3.6682 -1.0385 0.9849
0.1569 -2.0695 -0.5875 0.9914
0.6606 -3.5678 -1.0272 0.9850
0.7844 -3.5266 -1.0228 0.9851
0.9102 -3.4966 -1.0228 0.9851
1.0326 -3.4545 -1.0207 0.9851
1.2718 -3.3580 -1.0165 0.9852
1.5027 -3.2455 -1.0125 0.9852
1.6148 -3.1835 -1.0105 0.9853
1.7244 -3.1178 -1.0086 0.9853
1.5087 -2.1468 -0.7428 0.9892
1.5698 -2.0719 -0.7359 0.9893
1.7004 -2.0849 -0.7616 0.9889
2.4144 -2.5619 -0.9966 0.9855
2.5007 -2.4701 -0.9951 0.9855
2.5838 -2.3756 -0.9936 0.9855
2.7395 -2.1787 -0.9909 0.9856
2.8122 -2.0766 -0.9896 0.9856
3.2553 -1.7485 -1.0461 0.9848
3.5280 -1.7352 -1.1130 0.9838
3.6119 -1.6186 -1.1205 0.9837
3.6645 -1.4871 -1.1196 0.9837
1.5938 -0.4551 -0.4692 0.9931
1.5984 -0.3951 -0.4661 0.9932
1.8240 -0.3145 -0.5240 0.9923
2.1291 -0.2891 -0.6083 0.9911
3.9365 -0.1086 -1.1148 0.9838
3.9378 0.0323 -1.1148 0.9838
3.9261 0.3140 -1.1150 0.9838
3.8955 0.5942 -1.1155 0.9838
3.8142 1.0096 -1.1170 0.9837
3.6911 1.4153 -1.1191 0.9837
3.6409 1.5477 -1.1200 0.9837
3.5863 1.6784 -1.1209 0.9837
1.5592 1.1054 -0.5411 0.9921
1.4971 1.2313 -0.5488 0.9920
1.4883 1.3161 -0.5624 0.9918
2.2688 3.3437 -1.1439 0.9833
2.1516 3.4289 -1.1460 0.9833
2.0312 3.5101 -1.1481 0.9833
1.9079 3.5873 -1.1502 0.9833
1.6528 3.7289 -1.1547 0.9832
1.3874 3.8530 -1.1593 0.9831
1.2512 3.9082 -1.1617 0.9831
1.1128 3.9587 -1.1641 0.9831
0.9725 4.0044 -1.1666 0.9830
0.6865 4.0810 -1.1715 0.9829
-4.0683 -0.2917 -1.2545 0.9831
-4.0545 -0.4370 -1.2543 0.9831
-4.0104 -0.7255 -1.2535 0.9831
-3.9446 -1.0095 -1.2524 0.9831
-3.8063 -1.4237 -1.2500 0.9831
-3.6887 -1.6896 -1.2479 0.9832
-3.0507 -1.8158 -1.0920 0.9853
-2.9804 -1.9217 -1.0907 0.9853
-2.9063 -2.0247 -1.0895 0.9853
-2.4893 -2.1652 -1.0148 0.9863
-2.5739 -2.4058 -1.0837 0.9854
-2.4825 -2.4927 -1.0821 0.9854
-2.3881 -2.5760 -1.0804 0.9854
-1.8757 -2.9355 -1.0715 0.9855
-1.1116 -2.2369 -0.7683 0.9896
-1.4272 -3.1499 -1.0636 0.9856
-1.1936 -3.2314 -1.0596 0.9857
-1.0751 -3.2657 -1.0575 0.9857
-0.8355 -3.3210 -1.0533 0.9858
-0.5934 -3.3588 -1.0491 0.9858
-0.4718 -3.3710 -1.0470 0.9859
-0.1072 -3.3815 -1.0406 0.9859
0.0865 -2.1674 -0.6672 0.9910
0.1570 -2.0698 -0.6385 0.9914
0.7243 -3.2564 -1.0261 0.9861
1.1725 -3.0960 -1.0183 0.9862
1.3859 -2.9932 -1.0145 0.9863
1.5908 -2.8762 -1.0110 0.9863
1.6898 -2.8126 -1.0092 0.9864
1.5094 -2.1478 -0.8074 0.9891
1.5701 -2.0723 -0.7997 0.9892
1.6999 -2.0842 -0.8272 0.9888
2.2294 -2.3656 -0.9998 0.9865
2.3094 -2.2811 -0.9984 0.9865
2.4601 -2.1045 -0.9958 0.9865
2.7743 -1.7567 -1.0100 0.9864
2.9888 -1.7459 -1.0646 0.9856
3.3874 -1.3747 -1.1244 0.9848
1.5484 -0.5027 -0.5007 0.9932
1.5624 -0.3274 -0.4910 0.9933
2.1514 -0.2921 -0.6678 0.9910
3.6411 0.0299 -1.1200 0.9849
3.6018 0.5495 -1.1207 0.9849
3.5558 0.8062 -1.1215 0.9849
3.5263 0.9334 -1.1220 0.9849
3.4544 1.1846 -1.1232 0.9848
3.4120 1.3083 -1.1240 0.9848
3.3655 1.4306 -1.1248 0.9848
3.3147 1.5513 -1.1257 0.9848
1.9794 1.1054 -0.6973 0.9906
1.4813 1.1319 -0.5734 0.9922
1.4636 1.2942 -0.6009 0.9919
2.6792 2.5458 -1.1368 0.9847
2.4012 2.8303 -1.1416 0.9846
2.3018 2.9188 -1.1433 0.9846
1.7599 3.3091 -1.1528 0.9844
1.6433 3.3759 -1.1548 0.9844
1.4027 3.4975 -1.1590 0.9844
1.2790 3.5521 -1.1612 0.9843
1.0256 3.6483 -1.1656 0.9843
0.6324 3.7592 -1.1725 0.9842
0.3633 3.8100 -1.1772 0.9841
-3.7553 -0.1345 -1.2491 0.9843
-3.7477 -0.2687 -1.2489 0.9843
-3.7173 -0.5359 -1.2484 0.9843
-3.6945 -0.6683 -1.2480 0.9843
-3.6668 -0.7998 -1.2475 0.9843
-1.4699 -0.4328 -0.5093 0.9936
-3.5073 -1.3119 -1.2447 0.9843
-3.4556 -1.4355 -1.2438 0.9844
-2.9425 -1.7515 -1.1383 0.9857
-2.7475 -1.7715 -1.0867 0.9863
-2.6795 -1.8667 -1.0855 0.9863
-2.6079 -1.9591 -1.0842 0.9863
-2.4551 -2.1354 -1.0816 0.9864
-2.3740 -2.2189 -1.0802 0.9864
-2.1136 -2.4502 -1.0756 0.9865
-1.1274 -2.0786 -0.7860 0.9901
-1.1051 -2.2238 -0.8255 0.9896
-1.3182 -2.9094 -1.0617 0.9866
-1.1028 -2.9856 -1.0580 0.9867
-0.9935 -3.0177 -1.0561 0.9867
-0.7722 -3.0698 -1.0522 0.9867
-0.3239 -3.1251 -1.0444 0.9868
0.1244 -3.1159 -1.0366 0.9869
0.1570 -2.0702 -0.6901 0.9913
0.2305 -2.0594 -0.6888 0.9913
0.6708 -3.0159 -1.0270 0.9871
0.7769 -2.9846 -1.0252 0.9871
0.9849 -2.9111 -1.0215 0.9871
1.2846 -2.7745 -1.0163 0.9872
1.3808 -2.7222 -1.0146 0.9872
1.4749 -2.6667 -1.0130 0.9872
1.6567 -2.5464 -1.0098 0.9873
1.6993 -2.0835 -0.8937 0.9887
2.1431 -2.1169 -1.0013 0.9874
2.3492 -1.8683 -0.9977 0.9874
2.5614 -1.7534 -1.0318 0.9870
2.9410 -1.7180 -1.1322 0.9857
2.9980 -1.6103 -1.1312 0.9858
3.1461 -1.2768 -1.1286 0.9858
1.5105 -0.4904 -0.5279 0.9933
1.5152 -0.4326 -0.5238 0.9934
1.5241 -0.3194 -0.5176 0.9935
3.3671 -0.3350 -1.1248 0.9858
3.3764 -0.2143 -1.1246 0.9858
3.3827 0.0278 -1.1245 0.9858
3.3726 0.2697 -1.1247 0.9858
3.3614 0.3903 -1.1249 0.9858
3.3267 0.6300 -1.1255 0.9858
3.1691 1.2151 -1.1282 0.9858
3.1257 1.3287 -1.1290 0.9858
3.0784 1.4407 -1.1298 0.9858
2.1828 1.1185 -0.8153 0.9897
1.9793 1.1054 -0.7536 0.9905
1.5592 1.1054 -0.6353 0.9920
1.4578 1.1140 -0.6099 0.9923
1.4393 1.2728 -0.6387 0.9919
2.1353 2.7077 -1.1463 0.9856
1.9419 2.8619 -1.1496 0.9855
1.6316 3.0679 -1.1550 0.9855
1.5233 3.1295 -1.1569 0.9854
1.2999 3.2413 -1.1608 0.9854
1.1851 3.2914 -1.1628 0.9854
0.5855 3.4808 -1.1733 0.9852
0.3363 3.5268 -1.1777 0.9852
-3.4771 -0.1245 -1.2442 0.9853
-3.4583 -0.3728 -1.2439 0.9853
-1.5014 -0.2716 -0.5456 0.9935
-1.5064 -0.3286 -0.5514 0.9935
-1.3045 -0.3339 -0.4815 0.9943
-1.2738 -0.3751 -0.4749 0.9944
-1.2133 -0.5040 -0.4698 0.9944
-1.2004 -0.5498 -0.4722 0.9944
-3.0926 -1.5527 -1.2375 0.9854
-3.0325 -1.6610 -1.2365 0.9854
-2.9186 -1.7372 -1.2146 0.9857
-2.7109 -1.7479 -1.1535 0.9864
-2.4167 -1.8154 -1.0809 0.9872
-2.3475 -1.8986 -1.0797 0.9873
-2.1228 -2.1315 -1.0758 0.9873
-2.0425 -2.2033 -1.0744 0.9873
-1.8745 -2.3373 -1.0714 0.9874
-1.6977 -2.4583 -1.0684 0.9874
-1.6062 -2.5137 -1.0668 0.9874
-1.2094 -2.0510 -0.8515 0.9899
-1.0986 -2.2107 -0.8828 0.9896
-1.0238 -2.7716 -1.0566 0.9875
-0.8201 -2.8282 -1.0530 0.9876
-0.6136 -2.8697 -1.0494 0.9876
-0.5097 -2.8849 -1.0476 0.9876
-0.3010 -2.9038 -1.0440 0.9877
-0.1965 -2.9076 -1.0422 0.9877
-0.0922 -2.9077 -1.0403 0.9877
0.1156 -2.8967 -1.0367 0.9878
0.2305 -2.0590 -0.7409 0.9912
0.3178 -2.1420 -0.7744 0.9908
0.5241 -2.8310 -1.0296 0.9878
0.6240 -2.8056 -1.0278 0.9879
0.7228 -2.7768 -1.0261 0.9879
0.8204 -2.7446 -1.0244 0.9879
0.9166 -2.7091 -1.0227 0.9879
1.1044 -2.6281 -1.0194 0.9880
1.4592 -2.4288 -1.0133 0.9880
1.5108 -2.1498 -0.9397 0.9889
1.8555 -2.1157 -1.0063 0.9881
1.9276 -2.0454 -1.0051 0.9881
1.9972 -1.9727 -1.0039 0.9881
2.0641 -1.8978 -1.0027 0.9882
2.1283 -1.8207 -1.0016 0.9882
2.2111 -1.7585 -1.0103 0.9881
2.3698 -1.7500 -1.0535 0.9876
2.5425 -1.7405 -1.1019 0.9870
2.6854 -1.7004 -1.1367 0.9866
2.7954 -1.5015 -1.1347 0.9866
1.4930 -0.4263 -0.5552 0.9934
1.5010 -0.3145 -0.5484 0.9935
2.1827 -0.2964 -0.7877 0.9907
3.1408 -0.3125 -1.1287 0.9867
3.1495 -0.1999 -1.1286 0.9867
3.1544 -0.0870 -1.1285 0.9867
3.1460 0.2516 -1.1286 0.9867
3.1211 0.4761 -1.1290 0.9867
3.0257 0.9179 -1.1307 0.9867
2.9555 1.1332 -1.1319 0.9866
2.9149 1.2390 -1.1326 0.9866
1.8229 1.1054 -0.7624 0.9910
1.6839 1.1054 -0.7203 0.9915
1.5592 1.1054 -0.6835 0.9919
1.4275 1.2624 -0.6815 0.9919
2.3172 2.2018 -1.1431 0.9865
1.9003 2.5956 -1.1504 0.9864
1.8087 2.6656 -1.1520 0.9864
1.7146 2.7325 -1.1536 0.9864
1.6181 2.7962 -1.1553 0.9864
1.3151 2.9670 -1.1606 0.9863
1.2099 3.0169 -1.1624 0.9863
1.1030 3.0632 -1.1643 0.9863
0.9943 3.1058 -1.1662 0.9862
0.6590 3.2105 -1.1720 0.9862
0.4291 3.2605 -1.1760 0.9861
0.3127 3.2794 -1.1781 0.9861
0.1955 3.2942 -1.1801 0.9861
-3.2271 -0.2314 -1.2399 0.9862
-3.2011 -0.4615 -1.2394 0.9862
-1.5527 -0.2809 -0.6047 0.9933
-1.1443 -0.5241 -0.4823 0.9946
-2.8772 -1.4446 -1.2337 0.9863
-2.8214 -1.5454 -1.2328 0.9863
-2.7620 -1.6440 -1.2317 0.9863
-2.6898 -1.7343 -1.2265 0.9864
-2.5038 -1.7443 -1.1694 0.9870
-2.1849 -1.7671 -1.0769 0.9880
-2.1180 -1.8422 -1.0757 0.9880
-2.0514 -1.9174 -1.0761 0.9880
-1.9762 -1.9843 -1.0732 0.9881
-1.9016 -2.0513 -1.0719 0.9881
-1.8247 -2.1154 -1.0706 0.9881
-1.6644 -2.2346 -1.0678 0.9881
-1.4962 -2.3415 -1.0648 0.9882
-1.2098 -2.0516 -0.9127 0.9898
-1.1271 -2.0779 -0.9059 0.9899
-1.1401 -2.5162 -1.0586 0.9882
-1.0477 -2.5515 -1.0570 0.9883
-0.7646 -2.6367 -1.0521 0.9883
-0.4753 -2.6905 -1.0470 0.9884
-0.3781 -2.7014 -1.0453 0.9884
-0.2808 -2.7088 -1.0436 0.9884
0.0111 -2.7100 -1.0385 0.9885
0.1571 -2.0709 -0.7959 0.9911
0.2305 -2.0586 -0.7938 0.9912
0.3173 -2.1385 -0.8285 0.9908
0.5828 -2.6200 -1.0286 0.9886
0.8562 -2.5306 -1.0238 0.9886
0.9448 -2.4946 -1.0222 0.9886
1.0319 -2.4555 -1.0207 0.9887
1.1175 -2.4135 -1.0192 0.9887
1.2014 -2.3685 -1.0178 0.9887
1.3639 -2.2702 -1.0149 0.9887
1.4423 -2.2169 -1.0136 0.9887
1.6652 -2.0417 -1.0097 0.9888
1.8064 -1.9168 -1.0094 0.9888
1.9306 -1.7751 -1.0050 0.9888
2.0510 -1.7546 -1.0343 0.9885
2.5126 -1.5910 -1.1397 0.9873
2.5658 -1.4988 -1.1387 0.9874
2.6158 -1.4050 -1.1379 0.9874
2.6625 -1.3095 -1.1371 0.9874
2.7458 -1.1143 -1.1356 0.9874
1.4656 -0.5345 -0.5978 0.9933
1.4693 -0.4770 -0.5920 0.9934
1.5010 -0.3145 -0.5877 0.9935
1.8240 -0.3145 -0.7093 0.9921
2.1830 -0.2964 -0.8442 0.9906
2.9400 -0.2925 -1.1322 0.9874
2.9511 0.1299 -1.1320 0.9874
2.9350 0.3408 -1.1323 0.9874
2.9215 0.4457 -1.1325 0.9874
2.8838 0.6539 -1.1332 0.9874
2.7660 1.0606 -1.1352 0.9874
2.7279 1.1596 -1.1359 0.9874
2.6864 1.2572 -1.1366 0.9874
2.6415 1.3535 -1.1374 0.9874
1.8229 1.1054 -0.8170 0.9909
1.5592 1.1054 -0.7324 0.9918
1.4231 1.1704 -0.7061 0.9921
1.4195 1.2552 -0.7261 0.9919
1.4155 1.3450 -0.7483 0.9917
2.0945 2.1380 -1.1470 0.9873
2.0190 2.2141 -1.1483 0.9872
1.6908 2.4919 -1.1540 0.9872
1.6027 2.5542 -1.1556 0.9872
1.5123 2.6135 -1.1571 0.9871
1.4198 2.6696 -1.1587 0.9871
1.2288 2.7723 -1.1621 0.9871
1.1304 2.8187 -1.1638 0.9871
1.0304 2.8616 -1.1655 0.9871
0.8256 2.9370 -1.1691 0.9870
0.6153 2.9979 -1.1728 0.9870
0.4006 3.0439 -1.1765 0.9869
0.2919 3.0612 -1.1784 0.9869
0.1825 3.0747 -1.1803 0.9869
-3.0186 -0.1081 -1.2362 0.9870
-3.0125 -0.2160 -1.2361 0.9870
-2.9883 -0.4308 -1.2357 0.9870
-1.2289 -0.3145 -0.5192 0.9945
-1.1346 -0.3341 -0.4841 0.9949
-1.1156 -0.4173 -0.4875 0.9949
-1.1045 -0.4588 -0.4895 0.9948
-1.0923 -0.5003 -0.4917 0.9948
-2.6348 -1.4432 -1.2295 0.9871
-2.5794 -1.5353 -1.2286 0.9871
-2.5207 -1.6253 -1.2275 0.9871
-2.4588 -1.7129 -1.2264 0.9871
-2.3170 -1.7406 -1.1861 0.9876
-2.0194 -1.7564 -1.0954 0.9885
-1.8465 -1.8541 -1.0710 0.9888
-1.7783 -1.9182 -1.0705 0.9888
-1.7052 -1.9768 -1.0685 0.9888
-1.6314 -2.0342 -1.0672 0.9888
-1.5556 -2.0886 -1.0659 0.9888
-1.4780 -2.1402 -1.0645 0.9888
-1.3987 -2.1889 -1.0631 0.9888
-1.2101 -2.0522 -0.9751 0.9898
-1.1269 -2.0775 -0.9673 0.9898
-1.0855 -2.1843 -0.9983 0.9895
-0.9799 -2.3864 -1.0558 0.9889
-0.8926 -2.4165 -1.0543 0.9889
-0.8044 -2.4433 -1.0528 0.9889
-0.6257 -2.4872 -1.0496 0.9890
-0.5355 -2.5042 -1.0481 0.9890
-0.4448 -2.5179 -1.0465 0.9890
-0.0805 -2.5401 -1.0401 0.9891
0.0104 -2.5375 -1.0385 0.9891
0.1011 -2.5316 -1.0370 0.9891
0.1571 -2.0713 -0.8502 0.9911
0.5460 -2.4547 -1.0292 0.9892
0.6326 -2.4300 -1.0277 0.9892
0.7181 -2.4023 -1.0262 0.9892
0.8024 -2.3717 -1.0247 0.9892
0.8855 -2.3381 -1.0233 0.9893
0.9673 -2.3017 -1.0218 0.9893
1.0476 -2.2625 -1.0204 0.9893
1.1264 -2.2206 -1.0191 0.9893
1.2035 -2.1760 -1.0177 0.9893
1.2790 -2.1288 -1.0164 0.9893
1.3526 -2.0790 -1.0151 0.9893
1.4942 -1.9721 -1.0126 0.9894
1.9039 -1.7506 -1.0585 0.9889
2.0374 -1.7429 -1.0974 0.9885
2.1809 -1.7345 -1.1405 0.9880
2.2491 -1.6608 -1.1443 0.9880
2.3582 -1.4932 -1.1424 0.9880
2.4553 -1.3188 -1.1407 0.9880
2.4992 -1.2292 -1.1399 0.9880
2.5400 -1.1383 -1.1392 0.9880
1.4451 -0.5271 -0.6296 0.9934
1.4490 -0.4705 -0.6235 0.9934
1.4554 -0.3598 -0.6136 0.9935
1.5010 -0.3145 -0.6277 0.9934
1.8239 -0.3145 -0.7575 0.9920
2.1833 -0.2965 -0.9018 0.9905
2.7604 -0.2747 -1.1353 0.9881
2.7734 0.0228 -1.1351 0.9881
2.7709 0.1220 -1.1352 0.9881
2.7650 0.2211 -1.1353 0.9881
2.7557 0.3200 -1.1354 0.9881
2.7431 0.4184 -1.1356 0.9881
2.7270 0.5165 -1.1359 0.9881
2.7076 0.6139 -1.1363 0.9881
2.6587 0.8066 -1.1371 0.9881
2.4795 1.2705 -1.1402 0.9880
1.9794 1.1054 -0.9279 0.9902
1.8229 1.1054 -0.8725 0.9908
1.6839 1.1054 -0.8244 0.9913
1.5592 1.1054 -0.7822 0.9918
1.4466 1.1054 -0.7451 0.9922
1.4152 1.1639 -0.7499 0.9921
1.4113 1.2480 -0.7711 0.9919
1.4096 1.3393 -0.7958 0.9916
1.9650 2.0058 -1.1492 0.9879
1.8941 2.0771 -1.1505 0.9879
1.8205 2.1459 -1.1518 0.9879
1.7446 2.2122 -1.1531 0.9879
1.6663 2.2759 -1.1544 0.9879
1.5857 2.3369 -1.1558 0.9879
1.4181 2.4506 -1.1588 0.9878
1.1519 2.5988 -1.1634 0.9878
1.0596 2.6420 -1.1650 0.9878
0.9657 2.6820 -1.1667 0.9878
0.6756 2.7821 -1.1717 0.9877
0.5765 2.8086 -1.1735 0.9877
0.4763 2.8317 -1.1752 0.9877
0.1709 2.8794 -1.1805 0.9876
-2.8271 -0.1012 -1.2329 0.9877
-2.7988 -0.4035 -1.2324 0.9877
-1.0830 -0.3615 -0.4976 0.9950
-1.0773 -0.4029 -0.5013 0.9950
-1.0709 -0.4449 -0.5054 0.9950
-1.0638 -0.4872 -0.5099 0.9949
-2.4685 -1.3521 -1.2266 0.9878
-2.3039 -1.6051 -1.2237 0.9878
-2.0059 -1.7447 -1.1586 0.9885
-1.8741 -1.7518 -1.1180 0.9889
-1.7509 -1.7581 -1.0814 0.9892
-1.5986 -1.8532 -1.0666 0.9894
-1.5357 -1.9148 -1.0697 0.9893
-1.4586 -1.9583 -1.0642 0.9894
-1.3859 -2.0069 -1.0629 0.9894
-1.3116 -2.0527 -1.0616 0.9894
-1.2105 -2.0528 -1.0386 0.9897
-1.1267 -2.0771 -1.0298 0.9897
-1.0799 -2.1731 -1.0576 0.9895
-1.0002 -2.2074 -1.0562 0.9895
-0.8374 -2.2672 -1.0533 0.9895
-0.7547 -2.2926 -1.0519 0.9895
-0.5872 -2.3342 -1.0490 0.9896
-0.5026 -2.3504 -1.0475 0.9896
-0.1611 -2.3844 -1.0415 0.9896
0.0949 -2.3777 -1.0371 0.9897
0.1571 -2.0717 -0.9055 0.9910
0.2304 -2.0577 -0.9024 0.9910
0.3162 -2.1314 -0.9390 0.9906
0.5130 -2.3065 -1.0298 0.9897
0.7542 -2.2291 -1.0256 0.9898
0.8323 -2.1977 -1.0242 0.9898
1.2026 -2.0017 -1.0177 0.9899
1.2720 -1.9551 -1.0165 0.9899
1.4692 -1.8014 -1.0131 0.9899
1.7681 -1.7464 -1.0831 0.9892
1.8916 -1.7392 -1.1199 0.9889
2.0026 -1.7132 -1.1486 0.9886
2.0608 -1.6390 -1.1476 0.9886
2.1164 -1.5629 -1.1466 0.9886
2.1692 -1.4849 -1.1457 0.9886
2.2193 -1.4053 -1.1448 0.9886
2.3109 -1.2412 -1.1432 0.9886
2.3523 -1.1570 -1.1425 0.9886
2.3908 -1.0714 -1.1418 0.9886
2.4263 -0.9847 -1.1412 0.9886
1.4333 -0.4093 -0.6496 0.9935
1.4356 -0.3549 -0.6445 0.9936
1.5010 -0.3145 -0.6684 0.9933
1.8239 -0.3145 -0.8066 0.9920
2.6101 -0.0720 -1.1380 0.9887
2.6031 0.2082 -1.1381 0.9887
2.5489 0.5779 -1.1390 0.9887
2.5028 0.7593 -1.1398 0.9887
2.4751 0.8487 -1.1403 0.9886
2.4442 0.9372 -1.1409 0.9886
2.3735 1.1108 -1.1421 0.9886
1.9794 1.1054 -0.9880 0.9902
1.8229 1.1054 -0.9291 0.9907
1.4466 1.1054 -0.7934 0.9921
1.4095 1.1592 -0.7953 0.9921
1.9131 1.8178 -1.1501 0.9886
1.7125 2.0185 -1.1536 0.9885
1.2516 2.3534 -1.1617 0.9884
1.1681 2.3997 -1.1631 0.9884
1.0828 2.4431 -1.1646 0.9884
0.9960 2.4835 -1.1661 0.9884
0.9077 2.5209 -1.1677 0.9884
0.7270 2.5863 -1.1708 0.9883
0.6349 2.6142 -1.1724 0.9883
0.5417 2.6389 -1.1741 0.9883
0.4475 2.6604 -1.1757 0.9883
0.3525 2.6784 -1.1774 0.9883
0.2568 2.6932 -1.1790 0.9883
-2.6553 -0.0951 -1.2299 0.9884
-2.6500 -0.1900 -1.2298 0.9884
-1.6218 -0.2934 -0.7629 0.9928
-1.4419 -0.3145 -0.6831 0.9935
-1.0682 -0.3145 -0.5154 0.9951
-1.0557 -0.3523 -0.5151 0.9951
-1.0499 -0.3927 -0.5189 0.9951
-1.0363 -0.4747 -0.5276 0.9950
-1.0284 -0.5163 -0.5327 0.9949
-2.2707 -1.3516 -1.2232 0.9884
-2.1649 -1.5082 -1.2213 0.9884
-2.1078 -1.5834 -1.2203 0.9884
-2.0481 -1.6564 -1.2193 0.9885
-1.9857 -1.7271 -1.2182 0.9885
-1.7399 -1.7470 -1.1413 0.9892
-1.6252 -1.7531 -1.1065 0.9895
-1.5169 -1.7586 -1.0750 0.9898
-1.1621 -1.9707 -1.0590 0.9900
-1.0157 -2.0439 -1.0565 0.9900
-0.9407 -2.0763 -1.0551 0.9900
-0.8648 -2.1060 -1.0538 0.9900
-0.7878 -2.1329 -1.0525 0.9900
-0.7101 -2.1569 -1.0511 0.9900
-0.6316 -2.1781 -1.0498 0.9901
-0.3127 -2.2340 -1.0442 0.9901
0.0092 -2.2437 -1.0386 0.9902
0.3156 -2.1277 -0.9956 0.9906
0.4833 -2.1727 -1.0303 0.9902
0.5600 -2.1512 -1.0290 0.9902
0.6358 -2.1271 -1.0276 0.9903
0.7106 -2.1003 -1.0263 0.9903
1.1336 -1.8869 -1.0189 0.9903
1.2629 -1.7970 -1.0167 0.9904
1.3334 -1.7600 -1.0221 0.9903
1.5334 -1.7484 -1.0765 0.9898
1.7569 -1.7354 -1.1431 0.9892
1.8314 -1.6838 -1.1516 0.9891
1.9438 -1.5459 -1.1496 0.9891
2.0462 -1.4007 -1.1478 0.9891
2.0935 -1.3256 -1.1470 0.9891
2.1381 -1.2490 -1.1462 0.9891
1.4239 -0.5193 -0.7016 0.9933
1.4266 -0.4073 -0.6867 0.9935
1.5010 -0.3145 -0.7099 0.9933
2.4630 -0.0680 -1.1405 0.9892
2.4639 0.0202 -1.1405 0.9892
2.4564 0.1964 -1.1407 0.9892
2.4481 0.2842 -1.1408 0.9892
2.4368 0.3717 -1.1410 0.9892
2.4051 0.5453 -1.1415 0.9892
2.3353 0.8008 -1.1428 0.9892
2.2742 0.9667 -1.1438 0.9892
2.2393 1.0480 -1.1444 0.9892
1.6839 1.1054 -0.9324 0.9912
1.5592 1.1054 -0.8847 0.9916
1.4466 1.1054 -0.8427 0.9920
1.4218 1.1693 -0.8521 0.9919
1.4284 1.2631 -0.8826 0.9916
1.8042 1.7144 -1.1520 0.9891
1.7433 1.7795 -1.1531 0.9891
1.5471 1.9619 -1.1565 0.9890
1.4059 2.0719 -1.1590 0.9890
1.3323 2.1232 -1.1603 0.9890
1.2569 2.1720 -1.1616 0.9890
1.0205 2.3024 -1.1657 0.9890
0.5981 2.4627 -1.1731 0.9889
0.3320 2.5226 -1.1777 0.9888
-1.6288 -0.2947 -0.8119 0.9927
-1.4419 -0.3145 -0.7239 0.9934
-1.0682 -0.3145 -0.5462 0.9951
-1.0233 -0.3828 -0.5359 0.9951
-1.0168 -0.4224 -0.5401 0.9951
-1.0017 -0.5030 -0.5498 0.9950
-0.9931 -0.5439 -0.5554 0.9950
-2.1387 -1.2730 -1.2209 0.9890
-2.0393 -1.4207 -1.2191 0.9890
-1.8707 -1.6271 -1.2162 0.9890
-1.8097 -1.6915 -1.2151 0.9890
-1.7287 -1.7358 -1.2017 0.9891
-1.5077 -1.7479 -1.1323 0.9898
-1.3093 -1.7579 -1.0752 0.9903
-1.2282 -1.7784 -1.0602 0.9904
-1.1625 -1.8193 -1.0590 0.9904
-0.8869 -1.9576 -1.0542 0.9905
-0.6696 -2.0340 -1.0504 0.9905
-0.5957 -2.0542 -1.0491 0.9905
-0.4461 -2.0863 -1.0465 0.9905
-0.3707 -2.0983 -1.0452 0.9906
-0.2950 -2.1075 -1.0439 0.9906
0.0087 -2.1173 -1.0386 0.9906
0.1572 -2.0725 -1.0195 0.9908
0.2303 -2.0569 -1.0153 0.9908
0.3091 -2.0838 -1.0333 0.9907
0.3830 -2.0688 -1.0320 0.9907
0.5287 -2.0311 -1.0295 0.9907
0.6003 -2.0084 -1.0282 0.9907
0.6710 -1.9833 -1.0270 0.9907
0.7407 -1.9557 -1.0258 0.9907
0.8092 -1.9257 -1.0246 0.9907
0.8766 -1.8933 -1.0234 0.9907
0.9427 -1.8586 -1.0223 0.9908
1.0709 -1.7825 -1.0200 0.9908
1.2327 -1.7540 -1.0516 0.9905
1.3252 -1.7491 -1.0764 0.9903
1.4222 -1.7437 -1.1038 0.9900
1.6154 -1.7141 -1.1553 0.9896
1.6742 -1.6537 -1.1543 0.9896
1.8869 -1.3934 -1.1506 0.9896
1.9342 -1.3240 -1.1498 0.9896
2.1325 -0.9557 -1.1463 0.9896
2.1643 -0.8783 -1.1457 0.9896
1.4198 -0.4054 -0.7243 0.9934
1.4209 -0.3513 -0.7180 0.9935
1.5010 -0.3145 -0.7523 0.9932
1.8239 -0.3145 -0.9079 0.9918
2.3094 -0.3136 -1.1432 0.9897
2.3188 -0.2307 -1.1431 0.9897
2.3254 -0.1476 -1.1429 0.9897
2.3290 -0.0643 -1.1429 0.9897
2.3277 0.1025 -1.1429 0.9897
2.3227 0.1857 -1.1430 0.9897
2.2906 0.4338 -1.1435 0.9897
2.2741 0.5156 -1.1438 0.9897
2.2328 0.6774 -1.1446 0.9897
2.2080 0.7572 -1.1450 0.9897
2.1501 0.9139 -1.1460 0.9896
2.0814 1.0665 -1.1472 0.9896
1.8229 1.1054 -1.0457 0.9905
1.6839 1.1054 -0.9880 0.9911
1.5592 1.1054 -0.9375 0.9915
1.4466 1.1054 -0.8930 0.9919
1.4346 1.1799 -0.9111 0.9918
1.7051 1.6202 -1.1538 0.9896
1.6475 1.6816 -1.1548 0.9896
1.5877 1.7411 -1.1558 0.9896
1.5258 1.7985 -1.1569 0.9895
1.4618 1.8537 -1.1580 0.9895
1.3960 1.9067 -1.1592 0.9895
1.3282 1.9574 -1.1603 0.9895
1.2586 2.0058 -1.1616 0.9895
1.1873 2.0518 -1.1628 0.9895
0.9638 2.1745 -1.1667 0.9895
0.8077 2.2431 -1.1694 0.9894
0.4817 2.3467 -1.1751 0.9894
0.3979 2.3654 -1.1766 0.9894
0.3134 2.3811 -1.1781 0.9894
0.1426 2.4035 -1.1810 0.9893
-2.3608 -0.0000 -1.2247 0.9894
-2.3592 -0.0845 -1.2247 0.9894
-2.3545 -0.1688 -1.2246 0.9894
-2.3467 -0.2530 -1.2245 0.9894
-1.6361 -0.2960 -0.8625 0.9925
-1.4419 -0.3145 -0.7656 0.9934
-1.2289 -0.3145 -0.6581 0.9943
-1.0682 -0.3145 -0.5777 0.9950
-0.9975 -0.3731 -0.5525 0.9952
-0.9910 -0.4117 -0.5567 0.9952
-0.9838 -0.4506 -0.5614 0.9951
-0.9686 -0.5306 -0.5730 0.9950
-2.0187 -1.2016 -1.2188 0.9895
-1.9732 -1.2722 -1.2180 0.9895
-1.9250 -1.3411 -1.2171 0.9895
-1.8745 -1.4081 -1.2162 0.9895
-1.7662 -1.5362 -1.2144 0.9895
-1.7087 -1.5971 -1.2134 0.9895
-1.3016 -1.7476 -1.1305 0.9902
-1.1221 -1.7561 -1.0812 0.9907
-1.0391 -1.7622 -1.0613 0.9908
-0.9702 -1.7887 -1.0557 0.9909
-0.8380 -1.8495 -1.0534 0.9909
-0.4925 -1.9578 -1.0473 0.9909
-0.2071 -1.9985 -1.0423 0.9910
-0.1353 -2.0022 -1.0411 0.9910
-0.0635 -2.0034 -1.0398 0.9910
0.0082 -2.0020 -1.0386 0.9910
0.0798 -1.9980 -1.0373 0.9910
0.1510 -1.9915 -1.0361 0.9910
0.2219 -1.9824 -1.0349 0.9911
0.2924 -1.9708 -1.0336 0.9911
0.3623 -1.9568 -1.0324 0.9911
0.5002 -1.9214 -1.0300 0.9911
0.6348 -1.8764 -1.0276 0.9911
0.8295 -1.7916 -1.0242 0.9911
0.9716 -1.7567 -1.0415 0.9910
1.1377 -1.7486 -1.0823 0.9906
1.2256 -1.7440 -1.1058 0.9904
1.3175 -1.7389 -1.1318 0.9902
1.4716 -1.6780 -1.1578 0.9900
1.5851 -1.5657 -1.1559 0.9900
1.6388 -1.5068 -1.1549 0.9900
1.6904 -1.4460 -1.1540 0.9900
1.7397 -1.3836 -1.1532 0.9900
1.8317 -1.2539 -1.1516 0.9900
1.8742 -1.1868 -1.1508 0.9901
1.9872 -0.9774 -1.1488 0.9901
2.0199 -0.9052 -1.1483 0.9901
1.4115 -0.4583 -0.7699 0.9933
2.1877 -0.2971 -1.1453 0.9901
2.1966 -0.2186 -1.1452 0.9901
2.2063 -0.0609 -1.1450 0.9901
2.2070 0.0181 -1.1450 0.9901
2.2050 0.0971 -1.1450 0.9901
2.2003 0.1759 -1.1451 0.9901
2.1827 0.3330 -1.1454 0.9901
2.1542 0.4884 -1.1459 0.9901
2.0653 0.7919 -1.1475 0.9901
2.0365 0.8657 -1.1480 0.9901
1.9713 1.0101 -1.1491 0.9901
1.8229 1.1054 -1.1060 0.9904
1.6839 1.1054 -1.0450 0.9910
1.4508 1.1086 -0.9472 0.9918
1.6670 1.4741 -1.1544 0.9900
1.5031 1.6484 -1.1573 0.9900
1.4444 1.7026 -1.1583 0.9900
1.3214 1.8049 -1.1605 0.9900
1.2572 1.8528 -1.1616 0.9900
1.0546 1.9829 -1.1651 0.9899
0.9840 2.0215 -1.1664 0.9899
0.8387 2.0912 -1.1689 0.9899
0.6118 2.1764 -1.1728 0.9899
0.2964 2.2520 -1.1784 0.9898
0.1349 2.2728 -1.1812 0.9898
-2.2320 0.0000 -1.2225 0.9899
-2.2187 -0.2392 -1.2223 0.9899
-2.2084 -0.3184 -1.2221 0.9899
-1.6435 -0.2973 -0.9148 0.9924
-1.2289 -0.3145 -0.6948 0.9942
-0.9783 -0.3265 -0.5649 0.9953
-0.9725 -0.3637 -0.5687 0.9953
-0.9635 -0.4413 -0.5804 0.9952
-0.9532 -0.5221 -0.5952 0.9951
-1.8661 -1.2032 -1.2161 0.9899
-1.6706 -1.4531 -1.2127 0.9900
-1.5599 -1.5663 -1.2108 0.9900
-1.5016 -1.6198 -1.2097 0.9900
-1.3795 -1.7200 -1.2076 0.9900
-1.2939 -1.7372 -1.1864 0.9902
-1.2029 -1.7419 -1.1594 0.9904
-1.1158 -1.7462 -1.1350 0.9906
-0.9511 -1.7535 -1.0926 0.9909
-0.8729 -1.7566 -1.0743 0.9911
-0.7292 -1.7759 -1.0515 0.9913
-0.6645 -1.7989 -1.0503 0.9913
-0.5990 -1.8195 -1.0492 0.9913
-0.5329 -1.8378 -1.0480 0.9913
-0.4663 -1.8536 -1.0469 0.9913
-0.3992 -1.8670 -1.0457 0.9913
-0.2641 -1.8865 -1.0433 0.9913
