ply
format ascii 1.0
element vertex 1389
property float32 x
property float32 y
property float32 z
property float32 CosAngle
property uint32 ObjIdx
property uint32 ObjTag
end_header
-2.2147 8.3288 -1.2211 0.1520 0 8
-2.5251 8.2854 -1.2273 0.1513 0 8
-2.8343 8.2275 -1.2330 0.1346 0 7
-3.1416 8.1557 -1.2383 0.1341 0 7
-3.4473 8.0723 -1.2437 0.1335 0 7
-3.7509 7.9771 -1.2490 0.1329 0 7
-4.0520 7.8702 -1.2542 0.1324 0 7
-4.3501 7.7516 -1.2594 0.1318 0 7
-4.6446 7.6213 -1.2646 0.1313 0 7
-4.9350 7.4794 -1.2697 0.1308 0 7
-5.2209 7.3260 -1.2746 0.1302 0 7
-5.5018 7.1612 -1.2795 0.1297 0 7
-5.7771 6.9851 -1.2844 0.1293 0 7
-6.0463 6.7979 -1.2891 0.1288 0 7
-6.3089 6.5997 -1.2936 0.1283 0 7
-6.5645 6.3908 -1.2981 0.1279 0 7
-6.8124 6.1714 -1.3024 0.1275 0 7
-7.0523 5.9417 -1.3066 0.1271 0 7
-7.2836 5.7021 -1.3106 0.1267 0 7
-7.5059 5.4529 -1.3145 0.1263 0 7
-7.7186 5.1944 -1.3182 0.1259 0 7
-7.9215 4.9270 -1.3218 0.1256 0 7
-8.1139 4.6511 -1.3251 0.1253 0 7
-8.2955 4.3671 -1.3283 0.1250 0 7
-8.4660 4.0754 -1.3313 0.1247 0 7
-8.6248 3.7765 -1.3341 0.1244 0 7
-8.7717 3.4709 -1.3366 0.1242 0 7
-8.9064 3.1592 -1.3390 0.1240 0 7
-9.0284 2.8417 -1.3411 0.1238 0 7
-9.1377 2.5192 -1.3430 0.1236 0 7
-9.2338 2.1921 -1.3447 0.1235 0 7
-9.3165 1.8610 -1.3461 0.1233 0 7
-9.3858 1.5265 -1.3473 0.1232 0 7
-9.4414 1.1893 -1.3483 0.1231 0 7
-9.4831 0.8498 -1.3490 0.1231 0 7
-9.5109 0.5088 -1.3495 0.1230 0 7
-9.5248 0.1669 -1.3498 0.1230 0 7
-9.5246 -0.1753 -1.3498 0.1230 0 7
-9.5104 -0.5172 -1.3495 0.1230 0 7
-9.4822 -0.8582 -1.3490 0.1231 0 7
-9.4402 -1.1976 -1.3483 0.1231 0 6
-9.3843 -1.5348 -1.3473 0.1232 0 7
-8.7096 -1.7478 -1.2587 0.2140 0 8
-8.1021 -1.9310 -1.1801 0.1235 0 14
-8.0174 -2.2180 -1.1787 0.1236 0 14
-6.7369 -2.1270 -1.0010 0.9883 0 19
-7.8139 -2.7795 -1.1751 0.1240 0 14
-5.3342 -2.1162 -0.8131 0.9921 0 19
-7.5662 -3.3210 -1.1708 0.1244 0 14
-7.4266 -3.5832 -1.1683 0.1247 0 14
-3.9421 -2.0797 -0.6315 0.9882 0 19
-7.1171 -4.0881 -1.1629 0.1253 0 14
-6.9480 -4.3301 -1.1600 0.1256 0 14
-6.7698 -4.5646 -1.1569 0.1259 0 14
-6.5828 -4.7913 -1.1536 0.1263 0 14
-2.6121 -2.0487 -0.4704 0.8623 0 19
-2.5162 -2.1237 -0.4665 0.9463 0 19
-6.8064 -6.1769 -1.3023 0.1275 0 7
-6.5583 -6.3960 -1.2980 0.1279 0 7
-6.3025 -6.6047 -1.2935 0.1283 0 7
-6.0397 -6.8026 -1.2889 0.1288 0 7
-3.8887 -4.7104 -0.8655 0.8776 0 19
-5.4949 -7.1654 -1.2794 0.1298 0 7
-5.2139 -7.3300 -1.2745 0.1303 0 7
-4.9279 -7.4831 -1.2695 0.1308 0 7
-1.2570 -2.0668 -0.3428 0.5880 0 19
-1.1587 -2.0690 -0.3360 0.9839 0 19
-1.1003 -2.1418 -0.3412 0.7588 0 19
-3.7434 -7.9796 -1.2489 0.1329 0 7
-3.4397 -8.0745 -1.2436 0.1335 0 7
-3.1340 -8.1577 -1.2382 0.1341 0 7
-2.8266 -8.2291 -1.2329 0.1347 0 7
-2.5182 -8.2890 -1.2275 0.1352 0 7
-1.2213 -4.6093 -0.6756 0.7891 0 19
-1.8998 -8.3741 -1.2167 0.1364 0 7
3.9797 -4.3333 -0.9692 0.1742 0 14
4.1222 -4.1769 -0.9668 0.1746 0 14
4.2590 -4.0162 -0.9644 0.1751 0 14
0.7235 -0.6348 -0.1586 0.9583 47 10
0.7431 -0.6061 -0.1580 0.9619 47 10
0.7626 -0.5777 -0.1576 0.9641 47 10
0.7821 -0.5494 -0.1574 0.9651 47 10
0.8023 -0.5215 -0.1576 0.9825 47 10
0.8396 -0.5039 -0.1613 0.4613 47 10
0.9203 -0.5082 -0.1732 0.4297 47 10
0.9479 -0.4799 -0.1750 0.1779 47 10
0.9631 -0.4449 -0.1748 0.1782 47 10
0.9771 -0.4094 -0.1745 0.1784 47 10
1.0825 -0.4085 -0.1906 0.2980 47 10
5.4300 -1.8292 -0.9439 0.1788 0 8
1.5153 -0.4506 -0.2604 0.0327 47 10
6.3082 -1.6315 -1.0734 0.1792 0 7
6.3576 -1.4027 -1.0725 0.1793 0 7
6.3995 -1.1726 -1.0718 0.1795 0 6
6.4339 -0.9415 -1.0712 0.1796 0 7
6.4608 -0.7095 -1.0707 0.1796 0 7
6.4800 -0.4768 -1.0704 0.1797 0 7
6.4918 -0.2437 -1.0702 0.1797 0 7
6.4959 -0.0103 -1.0701 0.1797 0 7
6.4924 0.2230 -1.0702 0.1797 0 7
6.4814 0.4562 -1.0704 0.1797 0 7
6.4628 0.6889 -1.0707 0.1796 0 7
6.4366 0.9210 -1.0712 0.1796 0 7
6.4029 1.1522 -1.0717 0.1795 0 7
6.3617 1.3824 -1.0725 0.1794 0 7
6.3129 1.6113 -1.0733 0.1792 0 7
6.2567 1.8387 -1.0743 0.1790 0 7
6.1930 2.0643 -1.0754 0.1789 0 7
6.1219 2.2881 -1.0767 0.1787 0 7
6.0434 2.5097 -1.0780 0.1784 0 7
5.9576 2.7289 -1.0795 0.1782 0 7
5.8646 2.9456 -1.0811 0.1779 0 7
5.7643 3.1595 -1.0829 0.1776 0 7
5.6569 3.3703 -1.0848 0.1773 0 7
5.5424 3.5779 -1.0868 0.1770 0 7
5.4208 3.7820 -1.0889 0.1766 0 7
5.2924 3.9825 -1.0911 0.1763 0 7
5.1570 4.1791 -1.0935 0.1759 0 7
5.0150 4.3715 -1.0960 0.1755 0 7
4.8662 4.5596 -1.0986 0.1751 0 7
4.7109 4.7431 -1.1013 0.1747 0 7
4.5491 4.9218 -1.1041 0.1742 0 7
4.3810 5.0956 -1.1070 0.1737 0 7
4.2067 5.2641 -1.1101 0.1733 0 7
4.0263 5.4271 -1.1132 0.1728 0 7
3.8399 5.5845 -1.1165 0.1723 0 7
3.6478 5.7360 -1.1198 0.1718 0 6
3.4500 5.8814 -1.1233 0.1712 0 7
3.2467 6.0205 -1.1268 0.1707 0 7
3.0381 6.1531 -1.1305 0.1701 0 7
2.8245 6.2789 -1.1342 0.1696 0 7
2.6058 6.3977 -1.1380 0.1690 0 7
2.3825 6.5094 -1.1419 0.1684 0 7
2.1546 6.6137 -1.1459 0.1679 0 7
1.9224 6.7105 -1.1500 0.1673 0 7
1.6862 6.7995 -1.1541 0.1667 0 7
1.4461 6.8806 -1.1583 0.1661 0 7
1.2024 6.9536 -1.1625 0.1655 0 7
0.9554 7.0182 -1.1668 0.1648 0 7
0.7053 7.0743 -1.1712 0.1642 0 7
0.4525 7.1219 -1.1756 0.1636 0 7
0.1971 7.1606 -1.1801 0.1630 0 7
-0.0605 7.1903 -1.1846 0.1624 0 7
-0.3199 7.2110 -1.1891 0.1618 0 7
-0.5809 7.2224 -1.1937 0.1611 0 7
-0.8432 7.2245 -1.1982 0.1605 0 7
-1.1064 7.2171 -1.2028 0.1599 0 7
-1.3701 7.2001 -1.2074 0.1593 0 7
-1.6341 7.1735 -1.2120 0.1587 0 7
-1.8979 7.1372 -1.2166 0.1581 0 7
-2.1612 7.0911 -1.2212 0.1575 0 7
-2.4235 7.0352 -1.2258 0.1569 0 7
-2.6846 6.9694 -1.2304 0.1563 0 7
-2.9440 6.8938 -1.2349 0.1558 0 7
-3.2013 6.8083 -1.2394 0.1552 0 7
-3.4562 6.7129 -1.2438 0.1546 0 7
-3.7081 6.6077 -1.2482 0.1541 0 7
-3.9568 6.4927 -1.2526 0.1536 0 7
-4.2017 6.3681 -1.2569 0.1530 0 7
-4.4426 6.2338 -1.2611 0.1525 0 7
-4.6789 6.0901 -1.2652 0.1520 0 7
-4.9102 5.9370 -1.2692 0.1515 0 7
-5.1362 5.7747 -1.2732 0.1511 0 6
-5.3565 5.6033 -1.2770 0.1506 0 7
-5.5705 5.4231 -1.2807 0.1502 0 7
-5.7780 5.2343 -1.2844 0.1498 0 7
-5.9786 5.0371 -1.2879 0.1494 0 7
-6.1717 4.8317 -1.2912 0.1490 0 7
-6.3572 4.6184 -1.2945 0.1486 0 7
-6.5346 4.3976 -1.2976 0.1482 0 7
-6.7035 4.1695 -1.3005 0.1479 0 7
-6.8637 3.9345 -1.3033 0.1476 0 7
-7.0148 3.6928 -1.3060 0.1473 0 7
-7.1564 3.4450 -1.3084 0.1470 0 7
-7.2883 3.1913 -1.3107 0.1467 0 7
-7.4103 2.9322 -1.3129 0.1465 0 7
-7.5220 2.6681 -1.3148 0.1463 0 7
-7.6232 2.3994 -1.3166 0.1461 0 7
-7.7137 2.1266 -1.3182 0.1459 0 7
-7.7933 1.8501 -1.3195 0.1458 0 7
-7.8618 1.5704 -1.3207 0.1456 0 7
-7.9192 1.2880 -1.3217 0.1455 0 7
-7.9652 1.0033 -1.3225 0.1454 0 7
-7.9997 0.7169 -1.3231 0.1454 0 7
-8.0227 0.4292 -1.3235 0.1453 0 7
-8.0342 0.1408 -1.3237 0.1453 0 7
-8.0340 -0.1479 -1.3237 0.1453 0 7
-8.0223 -0.4363 -1.3235 0.1453 0 7
-7.9990 -0.7240 -1.3231 0.1454 0 7
-7.9642 -1.0104 -1.3225 0.1454 0 7
-7.9179 -1.2950 -1.3217 0.1455 0 6
-7.8603 -1.5774 -1.3207 0.1456 0 7
-7.3283 -1.7466 -1.2411 0.2515 0 8
-6.7681 -1.8724 -1.1568 0.1459 0 8
-6.6884 -2.1117 -1.1555 0.1461 0 14
-6.5993 -2.3474 -1.1539 0.1463 0 14
-5.3322 -2.1154 -0.9450 0.9890 0 19
-6.3938 -2.8064 -1.1503 0.1468 0 14
-6.2778 -3.0289 -1.1483 0.1470 0 14
-3.9407 -2.0790 -0.7340 0.9852 0 19
-6.0206 -3.4582 -1.1438 0.1476 0 14
-5.8798 -3.6644 -1.1413 0.1479 0 14
-5.7313 -3.8644 -1.1388 0.1482 0 14
-5.5755 -4.0581 -1.1360 0.1486 0 14
-2.6116 -2.0483 -0.5468 0.8595 0 19
-2.5152 -2.1229 -0.5422 0.9434 0 19
-5.0667 -4.5981 -1.1271 0.1498 0 14
-4.8844 -4.7636 -1.1240 0.1502 0 14
-4.6964 -4.9216 -1.1207 0.1506 0 14
-4.5030 -5.0718 -1.1173 0.1511 0 8
-3.8871 -4.7084 -1.0058 0.8750 0 19
-4.6731 -6.0938 -1.2651 0.1520 0 7
-4.4367 -6.2372 -1.2610 0.1525 0 7
-4.1957 -6.3713 -1.2567 0.1531 0 7
-1.2574 -2.0673 -0.3986 0.5858 0 19
-1.1585 -2.0686 -0.3906 0.9806 0 19
-1.0998 -2.1408 -0.3965 0.7566 0 19
-3.1950 -6.8105 -1.2393 0.1552 0 7
-2.9376 -6.8958 -1.2348 0.1558 0 7
-2.6782 -6.9712 -1.2303 0.1563 0 7
-2.4171 -7.0367 -1.2257 0.1569 0 7
-2.1547 -7.0924 -1.2211 0.1575 0 7
-1.2215 -4.6101 -0.7857 0.7863 0 19
-1.6276 -7.1743 -1.2119 0.1587 0 7
3.5171 -3.8296 -0.9773 0.1963 0 14
3.6441 -3.6924 -0.9751 0.1967 0 14
3.7661 -3.5514 -0.9730 0.1972 0 14
0.7253 -0.6363 -0.1814 0.9522 47 10
0.7449 -0.6076 -0.1807 0.9557 47 10
0.7645 -0.5791 -0.1803 0.9580 47 10
0.7840 -0.5507 -0.1801 0.9799 47 10
0.8033 -0.5222 -0.1801 0.9798 47 10
0.8258 -0.4955 -0.1810 0.9154 47 10
0.8554 -0.4724 -0.1837 0.9022 47 10
0.8860 -0.4485 -0.1867 0.8878 47 10
0.9176 -0.4238 -0.1900 0.8722 47 10
0.9590 -0.4018 -0.1954 0.3303 47 10
4.7570 -1.7952 -0.9557 0.2007 0 8
5.1819 -1.7457 -1.0278 0.3451 0 8
5.5421 -1.6479 -1.0868 0.2011 0 7
5.5932 -1.4465 -1.0859 0.2013 0 7
5.6375 -1.2438 -1.0851 0.2014 0 6
5.6751 -1.0399 -1.0845 0.2016 0 7
5.7059 -0.8350 -1.0839 0.2017 0 7
5.7300 -0.6292 -1.0835 0.2017 0 7
5.7473 -0.4229 -1.0832 0.2018 0 7
5.7578 -0.2161 -1.0830 0.2018 0 7
5.7615 -0.0092 -1.0829 0.2018 0 7
5.7584 0.1978 -1.0830 0.2018 0 7
5.7485 0.4046 -1.0832 0.2018 0 7
5.7318 0.6110 -1.0835 0.2018 0 7
5.7084 0.8168 -1.0839 0.2017 0 7
5.6781 1.0218 -1.0844 0.2016 0 7
5.6411 1.2258 -1.0850 0.2015 0 7
5.5974 1.4286 -1.0858 0.2013 0 7
5.5469 1.6301 -1.0867 0.2012 0 7
5.4898 1.8300 -1.0877 0.2010 0 7
5.4261 2.0280 -1.0888 0.2008 0 7
5.3558 2.2241 -1.0900 0.2005 0 7
5.2789 2.4180 -1.0914 0.2003 0 7
5.1956 2.6096 -1.0928 0.2000 0 7
5.1058 2.7985 -1.0944 0.1997 0 7
5.0096 2.9847 -1.0961 0.1994 0 7
1.9937 1.2871 -0.4460 0.4830 47 10
4.7985 3.3479 -1.0998 0.1988 0 7
1.7644 1.3277 -0.4150 0.3471 47 10
4.5628 3.6975 -1.1039 0.1980 0 7
4.4359 3.8668 -1.1061 0.1976 0 7
4.3032 4.0320 -1.1084 0.1972 0 7
4.1646 4.1931 -1.1108 0.1968 0 7
4.0204 4.3498 -1.1133 0.1963 0 7
3.8706 4.5020 -1.1159 0.1959 0 7
3.7154 4.6494 -1.1187 0.1954 0 7
3.5549 4.7918 -1.1215 0.1949 0 7
3.3892 4.9291 -1.1244 0.1944 0 7
3.2185 5.0610 -1.1273 0.1939 0 7
3.0429 5.1874 -1.1304 0.1934 0 7
2.8625 5.3081 -1.1335 0.1928 0 7
2.6776 5.4229 -1.1368 0.1923 0 7
2.4883 5.5316 -1.1401 0.1917 0 7
2.2948 5.6341 -1.1435 0.1912 0 7
2.0973 5.7301 -1.1469 0.1906 0 6
1.8959 5.8195 -1.1504 0.1900 0 6
1.6909 5.9021 -1.1540 0.1894 0 7
1.4824 5.9779 -1.1576 0.1888 0 7
1.2708 6.0465 -1.1613 0.1882 0 7
1.0562 6.1079 -1.1651 0.1876 0 7
0.8388 6.1619 -1.1689 0.1870 0 7
0.6190 6.2083 -1.1727 0.1864 0 7
0.3969 6.2471 -1.1766 0.1858 0 7
0.1728 6.2782 -1.1805 0.1852 0 7
-0.0530 6.3013 -1.1844 0.1846 0 7
-0.2802 6.3164 -1.1884 0.1839 0 7
-0.5086 6.3234 -1.1924 0.1833 0 7
-0.7379 6.3222 -1.1964 0.1827 0 7
-0.9677 6.3127 -1.2004 0.1821 0 7
-1.1979 6.2949 -1.2044 0.1815 0 7
-1.4279 6.2686 -1.2084 0.1809 0 7
-1.6577 6.2339 -1.2124 0.1803 0 7
-1.8867 6.1907 -1.2164 0.1797 0 7
-2.1148 6.1389 -1.2204 0.1791 0 7
-2.3415 6.0787 -1.2244 0.1785 0 7
-2.5665 6.0098 -1.2283 0.1780 0 7
-2.7895 5.9325 -1.2322 0.1774 0 7
-3.0102 5.8467 -1.2361 0.1768 0 7
-3.2282 5.7525 -1.2399 0.1763 0 6
-3.4431 5.6498 -1.2436 0.1758 0 7
-3.6547 5.5389 -1.2473 0.1753 0 7
-3.8625 5.4198 -1.2509 0.1747 0 7
-4.0662 5.2926 -1.2545 0.1742 0 7
-4.2654 5.1573 -1.2580 0.1738 0 7
-4.4599 5.0143 -1.2614 0.1733 0 7
-4.6493 4.8636 -1.2647 0.1728 0 7
-4.8333 4.7054 -1.2679 0.1724 0 7
-5.0114 4.5398 -1.2710 0.1720 0 7
-5.1835 4.3672 -1.2740 0.1716 0 7
-5.3491 4.1877 -1.2769 0.1712 0 7
-5.5080 4.0015 -1.2797 0.1708 0 7
-5.6599 3.8089 -1.2823 0.1705 0 7
-5.8044 3.6103 -1.2848 0.1701 0 7
-5.9414 3.4058 -1.2872 0.1698 0 7
-6.0705 3.1957 -1.2895 0.1695 0 7
-6.1915 2.9805 -1.2916 0.1692 0 7
-6.3042 2.7604 -1.2936 0.1690 0 7
-6.4082 2.5357 -1.2954 0.1687 0 7
-6.5035 2.3069 -1.2970 0.1685 0 7
-6.5898 2.0742 -1.2985 0.1683 0 7
-6.6670 1.8380 -1.2999 0.1682 0 7
-6.7348 1.5988 -1.3011 0.1680 0 7
-6.7932 1.3570 -1.3021 0.1679 0 7
-6.8421 1.1128 -1.3029 0.1678 0 7
-6.8812 0.8668 -1.3036 0.1677 0 7
-6.9107 0.6193 -1.3041 0.1676 0 7
-6.9303 0.3708 -1.3045 0.1676 0 7
-6.9400 0.1216 -1.3047 0.1675 0 7
-6.9399 -0.1278 -1.3046 0.1675 0 7
-6.9299 -0.3769 -1.3045 0.1676 0 7
-6.9100 -0.6254 -1.3041 0.1676 0 7
-6.8804 -0.8729 -1.3036 0.1677 0 7
-6.8410 -1.1189 -1.3029 0.1678 0 7
-6.7919 -1.3630 -1.3021 0.1679 0 7
-6.7333 -1.6048 -1.3010 0.1680 0 7
-6.3087 -1.7453 -1.2303 0.2883 0 8
-5.7818 -1.8255 -1.1396 0.1683 0 8
-5.7058 -2.0296 -1.1383 0.1685 0 14
-5.3302 -2.1146 -1.0778 0.9855 0 19
-5.5305 -2.4275 -1.1352 0.1690 0 14
-5.4315 -2.6206 -1.1335 0.1692 0 14
-3.9397 -2.0785 -0.8372 0.7559 0 19
-5.2116 -2.9936 -1.1297 0.1698 0 14
-5.0912 -3.1729 -1.1276 0.1701 0 14
-4.9642 -3.3472 -1.1254 0.1705 0 14
-4.8307 -3.5160 -1.1230 0.1708 0 14
-2.6112 -2.0479 -0.6237 0.8563 0 19
-2.5142 -2.1221 -0.6184 0.9401 0 19
-4.3945 -3.9880 -1.1154 0.1720 0 14
-4.2380 -4.1332 -1.1127 0.1724 0 14
-2.0830 -2.1828 -0.5671 0.2145 0 19
-3.9101 -4.4040 -1.1070 0.1733 0 14
-3.7393 -4.5294 -1.1040 0.1738 0 14
-3.5643 -4.6479 -1.1009 0.1743 0 14
-3.3854 -4.7594 -1.0978 0.1748 0 14
-3.2030 -4.8637 -1.0946 0.1753 0 14
-1.2577 -2.0679 -0.4549 0.5834 0 19
-1.1583 -2.0683 -0.4456 0.9769 0 19
-1.0993 -2.1398 -0.4522 0.7540 0 19
-1.0083 -2.1492 -0.4462 0.3250 0 19
-2.5610 -6.0116 -1.2282 0.1780 0 7
-2.3359 -6.0802 -1.2243 0.1785 0 7
-2.1091 -6.1403 -1.2203 0.1791 0 7
-1.8811 -6.1918 -1.2163 0.1797 0 7
-1.2217 -4.6110 -0.8966 0.7830 0 19
-1.0697 -4.7151 -0.9088 0.5722 0 19
3.1480 -3.4278 -0.9838 0.2183 0 14
3.2625 -3.3058 -0.9818 0.2188 0 14
3.3725 -3.1802 -0.9798 0.2192 0 14
0.7269 -0.6377 -0.2044 0.9445 47 10
0.7462 -0.6086 -0.2035 0.9485 47 10
0.7654 -0.5798 -0.2030 0.9512 47 10
0.7846 -0.5511 -0.2027 0.9526 47 10
0.8037 -0.5224 -0.2026 0.9528 47 10
0.8260 -0.4957 -0.2036 0.9111 47 10
4.0116 -2.2154 -0.9687 0.2217 0 14
4.0833 -2.0672 -0.9674 0.2220 0 14
4.1499 -1.9169 -0.9663 0.2223 0 14
4.2143 -1.7659 -0.9659 0.4247 0 8
4.6223 -1.7444 -1.0443 0.3802 0 8
4.9209 -1.6577 -1.0976 0.2230 0 7
4.9731 -1.4787 -1.0967 0.2231 0 7
5.0194 -1.2981 -1.0959 0.2233 0 7
5.0595 -1.1163 -1.0952 0.2235 0 7
5.0936 -0.9333 -1.0946 0.2236 0 7
5.1215 -0.7494 -1.0941 0.2237 0 7
5.1433 -0.5648 -1.0937 0.2238 0 7
5.1590 -0.3796 -1.0935 0.2238 0 7
5.1685 -0.1940 -1.0933 0.2238 0 7
5.1719 -0.0082 -1.0932 0.2239 0 7
5.1691 0.1776 -1.0933 0.2238 0 7
5.1601 0.3632 -1.0934 0.2238 0 7
5.1450 0.5484 -1.0937 0.2238 0 7
5.1237 0.7331 -1.0941 0.2237 0 7
5.0963 0.9171 -1.0946 0.2236 0 7
5.0628 1.1001 -1.0951 0.2235 0 7
5.0232 1.2821 -1.0958 0.2233 0 7
4.9775 1.4627 -1.0966 0.2232 0 7
4.9258 1.6419 -1.0975 0.2230 0 7
4.8681 1.8195 -1.0985 0.2228 0 7
4.8044 1.9952 -1.0997 0.2225 0 7
4.7349 2.1689 -1.1009 0.2223 0 7
4.6595 2.3403 -1.1022 0.2220 0 7
2.0345 1.1151 -0.4904 0.4918 47 10
1.8553 1.1054 -0.4565 0.5008 47 10
1.7123 1.1054 -0.4308 0.5306 47 10
1.6808 1.1726 -0.4332 0.3724 47 10
1.6570 1.2469 -0.4384 0.3680 47 10
1.6315 1.3221 -0.4439 0.3634 47 10
3.9733 3.4634 -1.1142 0.2196 0 7
3.8535 3.6107 -1.1162 0.2192 0 7
3.7286 3.7541 -1.1184 0.2188 0 7
3.5986 3.8935 -1.1207 0.2184 0 7
3.4637 4.0287 -1.1231 0.2179 0 7
3.3240 4.1595 -1.1255 0.2174 0 7
3.1795 4.2858 -1.1280 0.2170 0 7
3.0305 4.4074 -1.1306 0.2165 0 7
2.8770 4.5241 -1.1333 0.2159 0 7
2.7193 4.6357 -1.1360 0.2154 0 7
2.5574 4.7422 -1.1389 0.2149 0 7
2.3914 4.8433 -1.1418 0.2143 0 7
2.2217 4.9388 -1.1447 0.2138 0 7
2.0482 5.0287 -1.1478 0.2132 0 7
1.8713 5.1128 -1.1508 0.2126 0 7
1.6911 5.1908 -1.1540 0.2121 0 7
1.5077 5.2628 -1.1572 0.2115 0 7
1.3214 5.3285 -1.1604 0.2109 0 7
1.1324 5.3878 -1.1637 0.2103 0 7
0.9408 5.4405 -1.1671 0.2097 0 7
0.7469 5.4867 -1.1705 0.2091 0 7
0.5510 5.5261 -1.1739 0.2085 0 7
0.3531 5.5586 -1.1773 0.2079 0 7
0.1537 5.5842 -1.1808 0.2072 0 7
-0.0471 5.6027 -1.1843 0.2066 0 7
-0.2491 5.6140 -1.1879 0.2060 0 7
-0.4519 5.6181 -1.1914 0.2054 0 7
-0.6554 5.6150 -1.1950 0.2048 0 7
-0.8592 5.6045 -1.1985 0.2042 0 7
-1.0631 5.5865 -1.2021 0.2036 0 7
-1.2668 5.5611 -1.2056 0.2030 0 7
-1.4700 5.5283 -1.2092 0.2024 0 7
-1.6725 5.4879 -1.2127 0.2018 0 7
-1.8740 5.4400 -1.2162 0.2012 0 7
-2.0741 5.3846 -1.2197 0.2006 0 7
-2.2726 5.3217 -1.2232 0.2001 0 7
-2.4692 5.2513 -1.2266 0.1995 0 7
-2.6636 5.1735 -1.2300 0.1990 0 7
-2.8555 5.0883 -1.2334 0.1984 0 7
-3.0445 4.9958 -1.2367 0.1979 0 7
-3.2305 4.8960 -1.2399 0.1974 0 7
-3.4130 4.7891 -1.2431 0.1969 0 7
-3.5918 4.6751 -1.2462 0.1964 0 7
-3.7666 4.5542 -1.2493 0.1959 0 7
-3.9371 4.4265 -1.2522 0.1954 0 7
-4.1030 4.2921 -1.2551 0.1950 0 7
-4.2641 4.1513 -1.2579 0.1945 0 7
-4.4200 4.0041 -1.2607 0.1941 0 7
-4.5705 3.8507 -1.2633 0.1937 0 7
-4.7153 3.6914 -1.2658 0.1933 0 7
-4.8541 3.5264 -1.2682 0.1930 0 7
-4.9867 3.3559 -1.2706 0.1926 0 7
-5.1129 3.1801 -1.2728 0.1923 0 7
-5.2324 2.9993 -1.2748 0.1920 0 7
-5.3449 2.8138 -1.2768 0.1917 0 7
-5.4504 2.6237 -1.2786 0.1914 0 7
-5.5486 2.4295 -1.2804 0.1911 0 7
-5.6392 2.2314 -1.2819 0.1909 0 6
-5.7222 2.0297 -1.2834 0.1907 0 7
-5.7973 1.8247 -1.2847 0.1905 0 7
-5.8645 1.6168 -1.2859 0.1903 0 7
-5.9235 1.4062 -1.2869 0.1902 0 7
-5.9743 1.1934 -1.2878 0.1900 0 7
-6.0168 0.9786 -1.2885 0.1899 0 7
-6.0508 0.7622 -1.2891 0.1898 0 7
-6.0764 0.5445 -1.2896 0.1898 0 7
-6.0934 0.3260 -1.2899 0.1897 0 7
-6.1019 0.1069 -1.2900 0.1897 0 7
-6.1018 -0.1123 -1.2900 0.1897 0 7
-6.0931 -0.3314 -1.2899 0.1897 0 7
-6.0759 -0.5499 -1.2896 0.1898 0 7
-6.0501 -0.7675 -1.2891 0.1898 0 7
-6.0158 -0.9839 -1.2885 0.1899 0 7
-5.9731 -1.1987 -1.2878 0.1900 0 6
-5.9221 -1.4115 -1.2869 0.1902 0 7
-5.8629 -1.6220 -1.2858 0.1903 0 7
-5.5233 -1.7439 -1.2243 0.3243 0 8
-5.0204 -1.7858 -1.1263 0.1907 0 8
-4.9474 -1.9627 -1.1251 0.1909 0 14
-4.8676 -2.1365 -1.1237 0.1911 0 14
-4.7813 -2.3069 -1.1222 0.1914 0 14
-3.9389 -2.0780 -0.9414 0.7527 0 19
-4.5897 -2.6363 -1.1188 0.1920 0 14
-4.4846 -2.7949 -1.1170 0.1923 0 14
-4.3738 -2.9491 -1.1151 0.1926 0 14
-4.2572 -3.0986 -1.1130 0.1930 0 14
-2.6107 -2.0476 -0.7013 0.8526 0 19
-2.5132 -2.1213 -0.6952 0.9362 0 19
-3.8759 -3.5174 -1.1064 0.1941 0 14
-3.7390 -3.6465 -1.1040 0.1946 0 14
-3.5975 -3.7700 -1.1015 0.1950 0 14
-3.4518 -3.8878 -1.0990 0.1954 0 14
-3.3020 -3.9997 -1.0963 0.1959 0 14
-3.1485 -4.1057 -1.0937 0.1964 0 14
-2.9915 -4.2056 -1.0909 0.1969 0 14
-2.8312 -4.2992 -1.0881 0.1974 0 14
-1.2580 -2.0684 -0.5117 0.5806 0 19
-1.1581 -2.0680 -0.5010 0.9727 0 19
-1.0987 -2.1387 -0.5082 0.7509 0 19
-2.1629 -4.6104 -1.0765 0.1995 0 14
-1.9903 -4.6720 -1.0735 0.2001 0 14
-1.8160 -4.7271 -1.0704 0.2007 0 14
-1.6404 -4.7755 -1.0673 0.2012 0 14
-1.4635 -4.8174 -1.0643 0.2018 0 14
-1.2220 -4.6119 -1.0085 0.7793 0 19
-1.0690 -4.7120 -1.0213 0.5700 0 19
2.8465 -3.0994 -0.9890 0.2402 0 14
2.9505 -2.9897 -0.9872 0.2407 0 14
3.0506 -2.8767 -0.9855 0.2411 0 14
3.1466 -2.7606 -0.9838 0.2415 0 14
3.2385 -2.6414 -0.9822 0.2419 0 14
2.9321 -2.2210 -0.8645 0.4860 0 19
2.9637 -2.0818 -0.8512 0.8174 0 19
3.4883 -2.2676 -0.9778 0.2430 0 14
3.5627 -2.1380 -0.9765 0.2433 0 14
3.6327 -2.0062 -0.9753 0.2436 0 14
3.6981 -1.8722 -0.9742 0.2439 0 8
3.8058 -1.7580 -0.9853 0.4459 0 8
4.1597 -1.7430 -1.0600 0.4144 0 8
4.4053 -1.6625 -1.1066 0.2446 0 7
4.4584 -1.5019 -1.1057 0.2449 0 7
1.7264 -0.5133 -0.4233 0.4216 47 10
1.7355 -0.4489 -0.4213 0.4235 47 10
1.7434 -0.3847 -0.4196 0.4253 47 10
1.7501 -0.3207 -0.4182 0.4267 47 10
2.0261 -0.2965 -0.4812 0.5544 47 10
4.6615 -0.5119 -1.1021 0.2456 0 7
4.6758 -0.3440 -1.1019 0.2457 0 7
4.6845 -0.1758 -1.1017 0.2457 0 7
4.6876 -0.0075 -1.1017 0.2457 0 7
4.6850 0.1609 -1.1017 0.2457 0 7
4.6768 0.3292 -1.1019 0.2457 0 7
4.6630 0.4970 -1.1021 0.2456 0 7
4.6436 0.6644 -1.1025 0.2456 0 7
4.6185 0.8311 -1.1029 0.2455 0 7
4.5879 0.9970 -1.1034 0.2454 0 7
4.5518 1.1618 -1.1041 0.2452 0 7
4.5101 1.3254 -1.1048 0.2451 0 7
4.4629 1.4876 -1.1056 0.2449 0 7
4.4102 1.6483 -1.1065 0.2447 0 7
4.3521 1.8074 -1.1075 0.2444 0 7
4.2887 1.9645 -1.1087 0.2442 0 7
2.0886 1.0491 -0.5493 0.4857 47 10
2.0167 1.1054 -0.5405 0.4679 47 10
1.8553 1.1054 -0.5076 0.4983 47 10
1.7123 1.1054 -0.4790 0.5280 47 10
1.6066 1.1209 -0.4604 0.6431 47 10
1.5943 1.1997 -0.4689 0.6314 47 10
1.5809 1.2811 -0.4782 0.6191 47 10
3.5947 3.1335 -1.1208 0.2416 0 7
3.4858 3.2661 -1.1227 0.2412 0 7
3.3722 3.3952 -1.1247 0.2407 0 7
3.2540 3.5206 -1.1267 0.2403 0 7
3.1314 3.6421 -1.1289 0.2398 0 7
3.0044 3.7596 -1.1311 0.2394 0 7
2.8732 3.8729 -1.1334 0.2389 0 7
2.7380 3.9819 -1.1357 0.2384 0 7
2.5987 4.0864 -1.1382 0.2379 0 7
2.4556 4.1863 -1.1406 0.2374 0 7
2.3088 4.2814 -1.1432 0.2368 0 7
2.1585 4.3716 -1.1458 0.2363 0 7
2.0048 4.4567 -1.1485 0.2357 0 7
1.8478 4.5366 -1.1513 0.2352 0 7
1.6877 4.6112 -1.1541 0.2346 0 7
1.5248 4.6804 -1.1569 0.2340 0 7
1.3591 4.7440 -1.1598 0.2334 0 7
1.1908 4.8018 -1.1627 0.2328 0 7
1.0201 4.8539 -1.1657 0.2322 0 7
0.8473 4.9001 -1.1687 0.2316 0 7
0.6725 4.9402 -1.1718 0.2310 0 7
0.4959 4.9742 -1.1749 0.2304 0 7
0.3178 5.0020 -1.1780 0.2298 0 7
0.1383 5.0236 -1.1811 0.2292 0 7
-0.0424 5.0387 -1.1843 0.2286 0 7
-0.2239 5.0474 -1.1874 0.2280 0 7
-0.4062 5.0496 -1.1906 0.2274 0 7
-0.5889 5.0452 -1.1938 0.2268 0 7
-0.7718 5.0342 -1.1970 0.2262 0 7
-0.9546 5.0166 -1.2002 0.2256 0 7
-1.1372 4.9923 -1.2034 0.2250 0 7
-1.3193 4.9613 -1.2065 0.2244 0 7
-1.5006 4.9236 -1.2097 0.2238 0 7
-1.6808 4.8792 -1.2129 0.2232 0 7
-1.8597 4.8281 -1.2160 0.2226 0 7
-2.0371 4.7703 -1.2191 0.2221 0 7
-2.2127 4.7058 -1.2221 0.2215 0 7
-2.3862 4.6347 -1.2252 0.2210 0 7
-2.5574 4.5571 -1.2282 0.2204 0 7
-2.7259 4.4730 -1.2311 0.2199 0 7
-2.8916 4.3825 -1.2340 0.2194 0 7
-3.0542 4.2856 -1.2368 0.2189 0 7
-3.2133 4.1825 -1.2396 0.2184 0 7
-3.3689 4.0733 -1.2423 0.2179 0 7
-3.5205 3.9581 -1.2450 0.2175 0 7
-3.6680 3.8370 -1.2475 0.2170 0 7
-3.8110 3.7102 -1.2500 0.2166 0 7
-3.9494 3.5778 -1.2524 0.2162 0 7
-4.0830 3.4400 -1.2548 0.2158 0 7
-4.2114 3.2970 -1.2570 0.2154 0 7
-4.3345 3.1490 -1.2592 0.2150 0 7
-4.4521 2.9961 -1.2612 0.2147 0 7
-4.5639 2.8387 -1.2632 0.2143 0 7
-4.6697 2.6768 -1.2650 0.2140 0 7
-4.7694 2.5108 -1.2668 0.2137 0 7
-4.8628 2.3409 -1.2684 0.2134 0 7
-4.9496 2.1673 -1.2699 0.2132 0 7
-5.0298 1.9903 -1.2713 0.2130 0 7
-5.1032 1.8102 -1.2726 0.2127 0 7
-5.1696 1.6272 -1.2737 0.2125 0 7
-5.2290 1.4416 -1.2748 0.2124 0 7
-5.2812 1.2537 -1.2757 0.2122 0 7
-5.3261 1.0639 -1.2765 0.2121 0 7
-5.3636 0.8723 -1.2771 0.2120 0 7
-5.3937 0.6794 -1.2777 0.2119 0 7
-5.4163 0.4854 -1.2781 0.2118 0 7
-5.4313 0.2906 -1.2783 0.2118 0 7
-5.4388 0.0953 -1.2784 0.2118 0 7
-5.4387 -0.1001 -1.2784 0.2118 0 7
-5.4311 -0.2954 -1.2783 0.2118 0 7
-5.4158 -0.4902 -1.2780 0.2118 0 7
-5.3930 -0.6842 -1.2776 0.2119 0 7
-5.3628 -0.8771 -1.2771 0.2120 0 7
-5.3251 -1.0686 -1.2765 0.2121 0 7
-5.2800 -1.2584 -1.2757 0.2122 0 6
-5.2276 -1.4462 -1.2748 0.2124 0 7
-5.1681 -1.6317 -1.2737 0.2126 0 7
-4.8981 -1.7423 -1.2218 0.3595 0 8
-4.4380 -1.7606 -1.1221 0.4044 0 8
-4.3615 -1.9144 -1.1195 0.4274 0 8
-4.2659 -2.0582 -1.1132 0.2135 0 14
-3.9381 -2.0776 -1.0464 0.7491 0 19
-4.0962 -2.3529 -1.1102 0.2140 0 14
-4.0031 -2.4948 -1.1086 0.2143 0 14
-3.9049 -2.6329 -1.1069 0.2147 0 14
-3.8016 -2.7670 -1.1051 0.2150 0 14
-2.6102 -2.0472 -0.7796 0.8484 0 19
-2.5122 -2.1204 -0.7726 0.9319 0 19
-3.4633 -3.1430 -1.0992 0.2162 0 14
-3.3417 -3.2590 -1.0970 0.2166 0 14
-3.2160 -3.3702 -1.0948 0.2170 0 14
-3.0865 -3.4764 -1.0926 0.2175 0 14
-2.9534 -3.5774 -1.0903 0.2179 0 14
-2.8168 -3.6731 -1.0879 0.2184 0 14
-2.6770 -3.7634 -1.0854 0.2189 0 14
-2.5343 -3.8483 -1.0829 0.2194 0 14
-1.2583 -2.0690 -0.5691 0.5775 0 19
-1.1579 -2.0677 -0.5570 0.9679 0 19
-1.0982 -2.1377 -0.5648 0.7476 0 19
-1.9382 -4.1315 -1.0725 0.2215 0 14
-1.7841 -4.1879 -1.0699 0.2221 0 14
-1.6283 -4.2385 -1.0671 0.2227 0 14
-0.7454 -2.1700 -0.5392 0.2425 0 19
-1.3130 -4.3221 -1.0616 0.2238 0 14
-1.1539 -4.3550 -1.0589 0.2244 0 14
-0.9941 -4.3821 -1.0561 0.2250 0 14
2.5952 -2.8259 -0.9934 0.2620 0 14
2.6906 -2.7263 -0.9917 0.2625 0 14
2.7823 -2.6236 -0.9901 0.2629 0 14
2.8702 -2.5181 -0.9886 0.2633 0 14
2.9544 -2.4098 -0.9871 0.2637 0 14
2.9344 -2.2228 -0.9531 0.4830 0 19
2.9643 -2.0822 -0.9379 0.8128 0 19
3.1836 -2.0695 -0.9831 0.2648 0 14
3.2519 -1.9515 -0.9819 0.2651 0 14
3.3161 -1.8313 -0.9808 0.2654 0 8
3.4670 -1.7552 -1.0061 0.4783 0 8
3.7700 -1.7414 -1.0752 0.4476 0 8
3.9691 -1.6631 -1.1142 0.2662 0 7
4.0229 -1.5182 -1.1133 0.2664 0 7
1.6288 -0.5487 -0.4450 0.7289 47 10
1.6381 -0.4870 -0.4425 0.4418 47 10
1.6471 -0.4260 -0.4405 0.4438 47 10
1.6550 -0.3651 -0.4388 0.4455 47 10
1.7164 -0.3145 -0.4518 0.1745 47 10
2.0853 -0.3051 -0.5457 0.5357 47 10
4.2583 -0.4676 -1.1092 0.2674 0 7
4.2715 -0.3143 -1.1090 0.2675 0 7
4.2795 -0.1606 -1.1088 0.2675 0 7
4.2823 -0.0068 -1.1088 0.2675 0 7
4.2799 0.1470 -1.1088 0.2675 0 7
4.2724 0.3007 -1.1089 0.2675 0 7
4.2597 0.4540 -1.1092 0.2674 0 7
4.2418 0.6069 -1.1095 0.2673 0 7
4.2188 0.7592 -1.1099 0.2672 0 7
4.1907 0.9106 -1.1104 0.2671 0 7
4.1574 1.0611 -1.1109 0.2670 0 7
4.1191 1.2105 -1.1116 0.2668 0 7
4.0758 1.3586 -1.1124 0.2666 0 7
4.0274 1.5053 -1.1132 0.2664 0 7
3.9740 1.6503 -1.1141 0.2662 0 7
3.9158 1.7936 -1.1152 0.2660 0 7
2.1327 1.0712 -0.6179 0.7221 47 10
2.0167 1.1054 -0.5955 0.4653 47 10
1.8553 1.1054 -0.5592 0.4955 47 10
1.7123 1.1054 -0.5277 0.5250 47 10
1.5844 1.1054 -0.5002 0.5539 47 10
1.5474 1.1644 -0.5014 0.6469 47 10
1.5335 1.2427 -0.5111 0.6347 47 10
1.5184 1.3236 -0.5215 0.6219 47 10
3.1792 2.9788 -1.1280 0.2629 0 7
3.0751 3.0961 -1.1298 0.2625 0 7
2.9668 3.2099 -1.1317 0.2621 0 7
2.8545 3.3201 -1.1337 0.2616 0 7
2.7383 3.4267 -1.1357 0.2612 0 7
2.6183 3.5293 -1.1378 0.2607 0 7
2.4946 3.6279 -1.1400 0.2602 0 7
2.3673 3.7224 -1.1422 0.2597 0 7
2.2365 3.8127 -1.1445 0.2592 0 7
2.1024 3.8985 -1.1468 0.2586 0 7
1.9651 3.9798 -1.1492 0.2581 0 7
1.8247 4.0565 -1.1517 0.2575 0 7
1.6815 4.1283 -1.1542 0.2570 0 7
1.5355 4.1953 -1.1567 0.2564 0 7
1.3869 4.2573 -1.1593 0.2558 0 7
1.2359 4.3141 -1.1619 0.2553 0 7
1.0826 4.3658 -1.1646 0.2547 0 7
0.9273 4.4121 -1.1673 0.2541 0 7
0.7700 4.4530 -1.1701 0.2535 0 7
0.6110 4.4884 -1.1728 0.2529 0 7
0.4505 4.5182 -1.1756 0.2523 0 7
0.2886 4.5424 -1.1785 0.2517 0 7
0.1255 4.5608 -1.1813 0.2511 0 7
-0.0385 4.5734 -1.1842 0.2505 0 7
-0.2032 4.5802 -1.1871 0.2499 0 7
-0.3685 4.5810 -1.1899 0.2493 0 7
-0.5341 4.5759 -1.1928 0.2487 0 7
-0.6998 4.5648 -1.1957 0.2481 0 7
-0.8654 4.5477 -1.1986 0.2475 0 7
-1.0307 4.5246 -1.2015 0.2469 0 7
-1.1954 4.4954 -1.2044 0.2463 0 7
-1.3593 4.4601 -1.2072 0.2457 0 7
-1.5222 4.4188 -1.2101 0.2451 0 7
-1.6839 4.3714 -1.2129 0.2445 0 7
-1.8440 4.3180 -1.2157 0.2440 0 7
-2.0025 4.2587 -1.2185 0.2434 0 7
-2.1590 4.1934 -1.2212 0.2429 0 7
-2.3133 4.1222 -1.2239 0.2423 0 7
-2.4652 4.0452 -1.2265 0.2418 0 7
-2.6145 3.9624 -1.2291 0.2413 0 7
-2.7608 3.8740 -1.2317 0.2408 0 7
-2.9041 3.7800 -1.2342 0.2403 0 7
-3.0440 3.6805 -1.2366 0.2398 0 7
-3.1804 3.5757 -1.2390 0.2394 0 7
-1.2584 1.3164 -0.4715 0.1030 47 10
-3.4415 3.3504 -1.2436 0.2385 0 7
-1.4751 1.3363 -0.5153 0.3773 47 10
-3.6857 3.1053 -1.2478 0.2377 0 7
-3.8010 2.9757 -1.2499 0.2373 0 7
-3.9114 2.8416 -1.2518 0.2369 0 7
-4.0169 2.7033 -1.2536 0.2366 0 7
-4.1171 2.5608 -1.2554 0.2363 0 7
-4.2120 2.4144 -1.2570 0.2360 0 7
-4.3013 2.2644 -1.2586 0.2357 0 6
-4.3850 2.1109 -1.2601 0.2354 0 7
-4.4628 1.9541 -1.2614 0.2351 0 7
-4.5346 1.7943 -1.2627 0.2349 0 7
-4.6003 1.6318 -1.2638 0.2347 0 7
-4.6598 1.4667 -1.2648 0.2345 0 7
-4.7129 1.2993 -1.2658 0.2343 0 7
-4.7596 1.1299 -1.2666 0.2342 0 7
-4.7998 0.9588 -1.2673 0.2340 0 7
-4.8333 0.7861 -1.2679 0.2339 0 7
-4.8602 0.6122 -1.2683 0.2339 0 7
-4.8805 0.4374 -1.2687 0.2338 0 7
-4.8939 0.2618 -1.2689 0.2337 0 7
-4.9006 0.0859 -1.2691 0.2337 0 7
-4.9005 -0.0902 -1.2691 0.2337 0 7
-4.8937 -0.2662 -1.2689 0.2337 0 7
-4.8800 -0.4417 -1.2687 0.2338 0 7
-4.8597 -0.6165 -1.2683 0.2339 0 7
-4.8326 -0.7904 -1.2679 0.2339 0 7
-4.7988 -0.9630 -1.2673 0.2340 0 7
-4.7585 -1.1341 -1.2666 0.2342 0 7
-4.7117 -1.3035 -1.2658 0.2343 0 7
-4.6584 -1.4708 -1.2648 0.2345 0 7
-4.5987 -1.6358 -1.2638 0.2347 0 7
-4.3874 -1.7406 -1.2221 0.3938 0 8
-4.0010 -1.7562 -1.1313 0.4254 0 8
-3.8467 -1.8560 -1.1059 0.2354 0 8
-3.7732 -1.9906 -1.1046 0.2357 0 14
-3.6947 -2.1222 -1.1032 0.2360 0 14
-3.6113 -2.2506 -1.1017 0.2363 0 14
-3.5232 -2.3756 -1.1002 0.2366 0 14
-3.4305 -2.4969 -1.0986 0.2370 0 14
-2.6098 -2.0468 -0.8587 0.8439 0 19
-2.5112 -2.1196 -0.8508 0.9271 0 19
-3.1269 -2.8377 -1.0933 0.2381 0 14
-3.0177 -2.9430 -1.0914 0.2385 0 14
-2.9047 -3.0440 -1.0894 0.2390 0 14
-2.7883 -3.1405 -1.0874 0.2394 0 14
-2.6686 -3.2324 -1.0853 0.2399 0 14
-2.5457 -3.3196 -1.0831 0.2403 0 14
-2.4199 -3.4020 -1.0809 0.2408 0 14
-2.2914 -3.4795 -1.0787 0.2413 0 14
-1.2587 -2.0695 -0.6272 0.5742 0 19
-1.1577 -2.0674 -0.6135 0.9627 0 19
-1.0976 -2.1366 -0.6219 0.7438 0 19
-1.7541 -3.7390 -1.0693 0.2434 0 14
-1.6150 -3.7910 -1.0669 0.2440 0 14
-1.4743 -3.8377 -1.0644 0.2446 0 14
-1.3324 -3.8791 -1.0620 0.2451 0 14
-1.1894 -3.9152 -1.0595 0.2457 0 14
-1.0456 -3.9461 -1.0570 0.2463 0 14
-0.9010 -3.9716 -1.0544 0.2469 0 14
2.3825 -2.5942 -0.9971 0.2837 0 14
2.4703 -2.5031 -0.9956 0.2841 0 14
2.5549 -2.4092 -0.9941 0.2846 0 14
2.6360 -2.3126 -0.9927 0.2850 0 14
2.7136 -2.2134 -0.9913 0.2854 0 14
2.7878 -2.1117 -0.9900 0.2857 0 14
2.8582 -2.0077 -0.9888 0.2861 0 14
2.9251 -1.9015 -0.9877 0.2864 0 8
2.9881 -1.7932 -0.9866 0.2867 0 8
3.1733 -1.7524 -1.0262 0.5096 0 8
3.4364 -1.7397 -1.0904 0.4797 0 8
3.5941 -1.6602 -1.1208 0.2876 0 7
3.6484 -1.5287 -1.1198 0.2878 0 7
3.6981 -1.3956 -1.1190 0.2881 0 7
1.5869 -0.5346 -0.4740 0.7436 47 10
1.5923 -0.4735 -0.4703 0.7495 47 10
1.5971 -0.4130 -0.4670 0.7548 47 10
1.6011 -0.3533 -0.4642 0.7594 47 10
1.7164 -0.3145 -0.4940 0.1734 47 10
2.1295 -0.3116 -0.6093 0.7960 47 10
3.9157 -0.4300 -1.1152 0.2890 0 7
3.9279 -0.2890 -1.1150 0.2891 0 7
3.9352 -0.1477 -1.1148 0.2891 0 7
3.9378 -0.0063 -1.1148 0.2891 0 7
3.9357 0.1352 -1.1148 0.2891 0 7
3.9287 0.2765 -1.1149 0.2891 0 7
3.9170 0.4175 -1.1151 0.2890 0 7
3.9004 0.5581 -1.1154 0.2890 0 7
3.8792 0.6981 -1.1158 0.2889 0 7
3.8532 0.8373 -1.1163 0.2888 0 7
3.8224 0.9756 -1.1168 0.2886 0 7
3.7870 1.1129 -1.1174 0.2885 0 7
3.7469 1.2490 -1.1181 0.2883 0 7
3.7022 1.3837 -1.1189 0.2881 0 7
3.6530 1.5170 -1.1197 0.2879 0 7
3.5991 1.6486 -1.1207 0.2876 0 7
2.1573 1.0835 -0.6834 0.7096 47 10
2.0167 1.1054 -0.6511 0.4625 47 10
1.8553 1.1054 -0.6114 0.4925 47 10
1.7123 1.1054 -0.5770 0.5219 47 10
1.5844 1.1054 -0.5469 0.5506 47 10
1.5067 1.1338 -0.5338 0.7940 47 10
1.4988 1.2146 -0.5461 0.7761 47 10
1.4901 1.2989 -0.5596 0.7574 47 10
2.9194 2.7354 -1.1326 0.2846 0 7
2.8234 2.8427 -1.1342 0.2842 0 7
2.7236 2.9468 -1.1360 0.2837 0 7
2.6202 3.0476 -1.1378 0.2833 0 7
2.5131 3.1449 -1.1396 0.2828 0 7
2.4026 3.2386 -1.1416 0.2824 0 7
2.2887 3.3286 -1.1436 0.2819 0 7
2.1716 3.4147 -1.1456 0.2814 0 7
2.0513 3.4969 -1.1477 0.2808 0 7
1.9279 3.5751 -1.1499 0.2803 0 7
1.8017 3.6490 -1.1521 0.2798 0 7
1.6728 3.7186 -1.1543 0.2792 0 7
1.5412 3.7838 -1.1566 0.2787 0 7
1.4071 3.8445 -1.1590 0.2781 0 7
1.2707 3.9005 -1.1613 0.2775 0 7
1.1321 3.9519 -1.1638 0.2770 0 7
0.9916 3.9984 -1.1662 0.2764 0 7
0.8491 4.0400 -1.1687 0.2758 0 7
0.7049 4.0767 -1.1712 0.2752 0 7
0.5593 4.1083 -1.1738 0.2746 0 7
0.4122 4.1347 -1.1763 0.2740 0 7
0.2640 4.1560 -1.1789 0.2734 0 7
0.1148 4.1720 -1.1815 0.2728 0 7
-0.0352 4.1827 -1.1841 0.2722 0 7
-0.1858 4.1880 -1.1868 0.2716 0 7
-0.3369 4.1879 -1.1894 0.2710 0 7
-0.4881 4.1824 -1.1920 0.2704 0 7
-0.6395 4.1713 -1.1947 0.2698 0 7
-0.7906 4.1548 -1.1973 0.2692 0 7
-0.9414 4.1328 -1.1999 0.2686 0 7
-1.0917 4.1053 -1.2026 0.2680 0 7
-1.2411 4.0722 -1.2052 0.2675 0 7
-1.3895 4.0337 -1.2078 0.2669 0 7
-1.5368 3.9897 -1.2103 0.2663 0 7
-1.6826 3.9401 -1.2129 0.2658 0 7
-1.8269 3.8852 -1.2154 0.2652 0 7
-1.9693 3.8249 -1.2179 0.2647 0 7
-2.1096 3.7592 -1.2203 0.2641 0 7
-2.2477 3.6883 -1.2227 0.2636 0 7
-2.3834 3.6122 -1.2251 0.2631 0 7
-2.5163 3.5309 -1.2274 0.2626 0 7
-2.6464 3.4446 -1.2297 0.2621 0 7
-1.1027 1.3333 -0.4898 0.3772 47 10
-1.1359 1.2770 -0.4838 0.3818 47 10
-1.1672 1.2210 -0.4782 0.3864 47 10
-1.1967 1.1651 -0.4728 0.3907 47 10
-1.2246 1.1094 -0.4678 0.3949 47 10
-1.3120 1.1054 -0.4857 0.6200 47 10
-1.4940 1.1696 -0.5371 0.3934 47 10
-1.4761 1.0724 -0.5165 0.4091 47 10
-3.6554 2.4600 -1.2473 0.2584 0 7
-3.7461 2.3300 -1.2489 0.2581 0 7
-3.8320 2.1966 -1.2504 0.2578 0 7
-3.9128 2.0599 -1.2518 0.2575 0 7
-3.9885 1.9200 -1.2531 0.2572 0 7
-4.0589 1.7772 -1.2544 0.2570 0 7
-4.1238 1.6318 -1.2555 0.2567 0 7
-4.1832 1.4838 -1.2565 0.2565 0 7
-4.2370 1.3336 -1.2575 0.2563 0 7
-4.2850 1.1813 -1.2583 0.2562 0 7
-4.3272 1.0273 -1.2590 0.2560 0 7
-4.3635 0.8716 -1.2597 0.2559 0 7
-4.3938 0.7146 -1.2602 0.2558 0 7
-4.4181 0.5565 -1.2606 0.2557 0 7
-4.4364 0.3976 -1.2609 0.2556 0 7
-4.4486 0.2380 -1.2612 0.2556 0 7
-4.4546 0.0781 -1.2613 0.2556 0 7
-4.4546 -0.0820 -1.2613 0.2556 0 7
-4.4484 -0.2419 -1.2612 0.2556 0 7
-4.4360 -0.4015 -1.2609 0.2556 0 7
-4.4176 -0.5604 -1.2606 0.2557 0 7
-4.3931 -0.7185 -1.2602 0.2558 0 7
-4.3627 -0.8755 -1.2597 0.2559 0 7
-4.3262 -1.0311 -1.2590 0.2560 0 7
-4.2839 -1.1851 -1.2583 0.2562 0 6
-4.2357 -1.3373 -1.2574 0.2563 0 7
-4.1818 -1.4875 -1.2565 0.2565 0 7
-4.1223 -1.6354 -1.2555 0.2567 0 7
-3.9614 -1.7387 -1.2247 0.4270 0 8
-3.6333 -1.7530 -1.1420 0.4580 0 8
-3.4324 -1.8108 -1.0986 0.2575 0 8
-3.3613 -1.9308 -1.0974 0.2578 0 14
-3.2859 -2.0478 -1.0961 0.2581 0 14
-3.2061 -2.1618 -1.0947 0.2584 0 14
-3.1222 -2.2725 -1.0932 0.2588 0 14
-2.6093 -2.0465 -0.9388 0.8389 0 19
-2.5102 -2.1187 -0.9299 0.9218 0 19
-2.8471 -2.5838 -1.0884 0.2599 0 14
-2.7481 -2.6801 -1.0867 0.2603 0 14
-2.6457 -2.7725 -1.0849 0.2608 0 14
-2.5400 -2.8609 -1.0830 0.2612 0 14
-2.4314 -2.9451 -1.0811 0.2617 0 14
-2.3198 -3.0251 -1.0792 0.2621 0 14
-2.2056 -3.1007 -1.0772 0.2626 0 14
-2.0888 -3.1719 -1.0752 0.2631 0 14
-1.2590 -2.0701 -0.6859 0.5705 0 19
-1.1576 -2.0670 -0.6707 0.9570 0 19
-1.0971 -2.1355 -0.6797 0.7396 0 19
-1.6002 -3.4111 -1.0666 0.2652 0 14
-1.4736 -3.4592 -1.0644 0.2658 0 14
-1.3456 -3.5025 -1.0622 0.2663 0 14
-1.2163 -3.5411 -1.0599 0.2669 0 14
-1.0860 -3.5748 -1.0577 0.2675 0 14
-0.9548 -3.6037 -1.0554 0.2680 0 14
-0.8230 -3.6277 -1.0531 0.2686 0 14
2.1998 -2.3953 -1.0003 0.3052 0 14
2.2812 -2.3115 -0.9989 0.3057 0 14
2.3595 -2.2250 -0.9975 0.3061 0 14
2.4347 -2.1360 -0.9962 0.3065 0 14
2.5067 -2.0446 -0.9950 0.3069 0 14
2.5754 -1.9509 -0.9938 0.3072 0 14
2.6408 -1.8550 -0.9926 0.3076 0 8
2.7120 -1.7630 -0.9949 0.5861 0 8
2.9155 -1.7496 -1.0458 0.5397 0 8
3.1468 -1.7378 -1.1057 0.5105 0 8
3.2675 -1.6542 -1.1265 0.3088 0 7
3.3220 -1.5345 -1.1255 0.3091 0 7
3.3724 -1.4131 -1.1246 0.3093 0 7
3.4185 -1.2901 -1.1238 0.3095 0 6
1.5466 -0.5210 -0.5020 0.7579 47 10
1.5522 -0.4615 -0.4981 0.7638 47 10
1.5571 -0.4027 -0.4947 0.7690 47 10
1.5613 -0.3445 -0.4918 0.7736 47 10
1.7164 -0.3145 -0.5367 0.1723 47 10
2.1518 -0.3149 -0.6689 0.7825 47 10
3.6206 -0.3976 -1.1203 0.3105 0 7
3.6319 -0.2672 -1.1201 0.3106 0 7
3.6388 -0.1366 -1.1200 0.3106 0 7
3.6412 -0.0058 -1.1200 0.3106 0 7
3.6392 0.1250 -1.1200 0.3106 0 7
3.6327 0.2557 -1.1201 0.3106 0 7
3.6218 0.3860 -1.1203 0.3105 0 7
3.6065 0.5160 -1.1206 0.3105 0 7
3.5867 0.6454 -1.1209 0.3104 0 7
3.5625 0.7741 -1.1213 0.3102 0 7
3.5340 0.9020 -1.1218 0.3101 0 7
3.5011 1.0289 -1.1224 0.3099 0 7
3.4639 1.1546 -1.1230 0.3098 0 7
3.4224 1.2791 -1.1238 0.3096 0 7
3.3766 1.4022 -1.1246 0.3093 0 7
3.3267 1.5238 -1.1254 0.3091 0 7
2.1825 1.0962 -0.7512 0.8525 47 10
2.0167 1.1054 -0.7074 0.4594 47 10
1.8553 1.1054 -0.6643 0.4892 47 10
1.7123 1.1054 -0.6269 0.5184 47 10
1.5844 1.1054 -0.5942 0.5469 47 10
1.4829 1.1159 -0.5708 0.8014 47 10
1.4746 1.1950 -0.5838 0.7836 47 10
1.4655 1.2774 -0.5980 0.7650 47 10
2.6962 2.5263 -1.1364 0.3061 0 7
2.6073 2.6251 -1.1380 0.3057 0 7
2.5149 2.7209 -1.1396 0.3053 0 7
2.4191 2.8136 -1.1413 0.3048 0 7
2.3199 2.9031 -1.1430 0.3044 0 7
2.2176 2.9892 -1.1448 0.3039 0 7
2.1122 3.0719 -1.1466 0.3034 0 7
2.0038 3.1509 -1.1485 0.3029 0 7
1.8925 3.2263 -1.1505 0.3024 0 7
1.7785 3.2979 -1.1525 0.3019 0 7
1.6618 3.3656 -1.1545 0.3013 0 7
1.5426 3.4293 -1.1566 0.3008 0 7
1.4211 3.4889 -1.1587 0.3002 0 7
1.2972 3.5443 -1.1609 0.2997 0 7
1.1713 3.5954 -1.1631 0.2991 0 7
1.0434 3.6421 -1.1653 0.2985 0 7
0.9137 3.6844 -1.1676 0.2980 0 7
0.7823 3.7221 -1.1699 0.2974 0 7
0.6494 3.7553 -1.1722 0.2968 0 7
0.5151 3.7837 -1.1745 0.2962 0 7
0.3796 3.8074 -1.1769 0.2956 0 7
0.2431 3.8263 -1.1793 0.2950 0 7
0.1057 3.8404 -1.1817 0.2944 0 7
-0.0324 3.8495 -1.1841 0.2938 0 7
-0.1710 3.8538 -1.1865 0.2932 0 7
-0.3099 3.8530 -1.1889 0.2926 0 7
-0.4490 3.8472 -1.1913 0.2920 0 7
-0.5881 3.8364 -1.1938 0.2914 0 7
-0.7270 3.8205 -1.1962 0.2908 0 7
-0.8655 3.7996 -1.1986 0.2902 0 7
-1.0035 3.7736 -1.2010 0.2897 0 7
-1.1406 3.7426 -1.2034 0.2891 0 7
-1.2768 3.7065 -1.2058 0.2885 0 7
-1.4119 3.6654 -1.2082 0.2879 0 7
-1.5456 3.6193 -1.2105 0.2874 0 7
-1.6778 3.5683 -1.2128 0.2868 0 7
-1.8083 3.5123 -1.2151 0.2863 0 7
-1.9369 3.4514 -1.2173 0.2858 0 7
-2.0633 3.3858 -1.2195 0.2853 0 7
-2.1875 3.3153 -1.2217 0.2848 0 7
-2.3092 3.2402 -1.2238 0.2843 0 7
-2.4282 3.1606 -1.2259 0.2838 0 7
-1.0607 1.2825 -0.5119 0.5768 47 10
-1.0797 1.2139 -0.4997 0.5909 47 10
-1.1011 1.1518 -0.4901 0.4068 47 10
-1.1354 1.1054 -0.4874 0.6667 47 10
-1.2202 1.1054 -0.5064 0.6417 47 10
-1.3120 1.1054 -0.5277 0.6158 47 10
-1.4120 1.1054 -0.5515 0.5892 47 10
-1.5340 1.1145 -0.5832 0.3911 47 10
-3.3500 2.2545 -1.2420 0.2801 0 7
-3.4328 2.1352 -1.2434 0.2798 0 7
-3.5111 2.0127 -1.2448 0.2795 0 7
-3.5849 1.8872 -1.2461 0.2792 0 7
-3.6539 1.7589 -1.2473 0.2789 0 7
-3.7180 1.6280 -1.2484 0.2787 0 7
-3.7772 1.4946 -1.2494 0.2784 0 7
-3.8314 1.3590 -1.2504 0.2782 0 7
-3.8804 1.2214 -1.2512 0.2780 0 7
-3.9241 1.0819 -1.2520 0.2779 0 7
-3.9626 0.9407 -1.2527 0.2777 0 7
-3.9957 0.7981 -1.2533 0.2776 0 7
-4.0233 0.6544 -1.2537 0.2775 0 7
-4.0454 0.5096 -1.2541 0.2774 0 7
-4.0621 0.3640 -1.2544 0.2773 0 7
-4.0732 0.2179 -1.2546 0.2773 0 7
-4.0787 0.0715 -1.2547 0.2773 0 7
-4.0786 -0.0751 -1.2547 0.2773 0 7
-4.0730 -0.2215 -1.2546 0.2773 0 7
-4.0617 -0.3676 -1.2544 0.2773 0 7
-4.0450 -0.5132 -1.2541 0.2774 0 7
-4.0227 -0.6579 -1.2537 0.2775 0 7
-3.9949 -0.8017 -1.2532 0.2776 0 7
-3.9617 -0.9442 -1.2527 0.2777 0 7
-3.9231 -1.0853 -1.2520 0.2779 0 7
-3.8792 -1.2248 -1.2512 0.2780 0 6
-3.8301 -1.3624 -1.2504 0.2782 0 7
-3.7758 -1.4980 -1.2494 0.2784 0 7
-3.7165 -1.6313 -1.2484 0.2787 0 7
-3.5996 -1.7367 -1.2293 0.4592 0 8
-3.3168 -1.7499 -1.1534 0.4894 0 8
-3.0799 -1.7691 -1.0925 0.2795 0 8
-3.0111 -1.8765 -1.0913 0.2798 0 8
-2.9383 -1.9812 -1.0900 0.2801 0 14
-2.8617 -2.0829 -1.0887 0.2805 0 14
-2.6088 -2.0461 -1.0198 0.8335 0 19
-2.5092 -2.1178 -1.0099 0.9161 0 19
-2.6105 -2.3691 -1.0843 0.2816 0 14
-2.5200 -2.4577 -1.0827 0.2820 0 14
-2.4265 -2.5428 -1.0811 0.2824 0 14
-2.3299 -2.6242 -1.0794 0.2829 0 14
-2.2306 -2.7019 -1.0776 0.2833 0 14
-2.1286 -2.7756 -1.0759 0.2838 0 14
-2.0240 -2.8455 -1.0740 0.2843 0 14
-1.9172 -2.9113 -1.0722 0.2848 0 14
-1.2594 -2.0706 -0.7454 0.5666 0 19
-1.1574 -2.0667 -0.7286 0.9508 0 19
-1.0965 -2.1344 -0.7381 0.7351 0 19
-1.4697 -3.1328 -1.0644 0.2869 0 14
-1.3536 -3.1776 -1.0623 0.2874 0 14
-1.2363 -3.2179 -1.0603 0.2880 0 14
-1.1177 -3.2539 -1.0582 0.2885 0 14
-0.9981 -3.2854 -1.0561 0.2891 0 14
-0.8777 -3.3126 -1.0540 0.2897 0 14
-0.7566 -3.3353 -1.0519 0.2903 0 14
2.0412 -2.2226 -1.0031 0.3266 0 14
2.1169 -2.1450 -1.0018 0.3270 0 14
2.1898 -2.0649 -1.0005 0.3274 0 14
2.2598 -1.9825 -0.9993 0.3278 0 14
2.3268 -1.8978 -0.9981 0.3282 0 8
2.3908 -1.8110 -0.9970 0.3286 0 8
2.5007 -1.7565 -1.0158 0.5962 0 8
2.6870 -1.7468 -1.0653 0.5685 0 8
2.8924 -1.7357 -1.1213 0.5401 0 8
2.9798 -1.6456 -1.1315 0.3299 0 7
3.0344 -1.5362 -1.1305 0.3302 0 7
3.0852 -1.4251 -1.1297 0.3304 0 7
3.1321 -1.3124 -1.1288 0.3307 0 7
3.1751 -1.1983 -1.1281 0.3309 0 6
1.5095 -0.5085 -0.5295 0.9270 47 10
1.5136 -0.4500 -0.5249 0.7776 47 10
1.5186 -0.3928 -0.5214 0.7828 47 10
1.5230 -0.3360 -0.5184 0.7874 47 10
1.7164 -0.3145 -0.5801 0.1710 47 10
2.1750 -0.3183 -0.7307 0.7686 47 10
3.3636 -0.3694 -1.1248 0.3318 0 7
3.3741 -0.2483 -1.1246 0.3319 0 7
3.3805 -0.1269 -1.1245 0.3319 0 7
3.3828 -0.0054 -1.1245 0.3319 0 7
3.3809 0.1161 -1.1245 0.3319 0 7
3.3749 0.2375 -1.1246 0.3319 0 7
3.3647 0.3586 -1.1248 0.3319 0 7
3.3504 0.4794 -1.1250 0.3318 0 7
3.3320 0.5996 -1.1254 0.3317 0 7
3.3094 0.7191 -1.1257 0.3316 0 7
3.2828 0.8379 -1.1262 0.3314 0 7
3.2521 0.9557 -1.1267 0.3313 0 7
3.2175 1.0725 -1.1274 0.3311 0 7
3.1788 1.1881 -1.1280 0.3309 0 7
3.1361 1.3024 -1.1288 0.3307 0 7
3.0895 1.4152 -1.1296 0.3304 0 7
2.1828 1.0964 -0.8120 0.8462 47 10
2.0167 1.1054 -0.7645 0.4561 47 10
1.8553 1.1054 -0.7179 0.4857 47 10
1.7123 1.1054 -0.6775 0.5147 47 10
1.5844 1.1054 -0.6422 0.5430 47 10
1.4690 1.1054 -0.6111 0.5706 47 10
1.4508 1.1757 -0.6207 0.7907 47 10
1.4413 1.2564 -0.6356 0.7723 47 10
1.4327 1.3425 -0.6526 0.7375 47 10
2.4195 2.4360 -1.1413 0.3271 0 7
2.3335 2.5247 -1.1428 0.3266 0 7
2.2444 2.6104 -1.1443 0.3262 0 7
2.1522 2.6931 -1.1459 0.3257 0 7
2.0570 2.7727 -1.1476 0.3253 0 7
1.9590 2.8491 -1.1493 0.3248 0 7
1.8582 2.9220 -1.1511 0.3243 0 7
1.7548 2.9916 -1.1529 0.3238 0 7
1.6489 3.0576 -1.1547 0.3232 0 7
1.5405 3.1200 -1.1566 0.3227 0 7
1.4298 3.1786 -1.1586 0.3222 0 7
1.3170 3.2334 -1.1605 0.3216 0 7
1.2021 3.2843 -1.1625 0.3211 0 7
1.0852 3.3311 -1.1646 0.3205 0 7
0.9666 3.3740 -1.1666 0.3199 0 7
0.8463 3.4126 -1.1687 0.3194 0 7
0.7245 3.4471 -1.1709 0.3188 0 7
0.6013 3.4773 -1.1730 0.3182 0 7
0.4769 3.5031 -1.1752 0.3176 0 7
0.3514 3.5245 -1.1774 0.3170 0 7
0.2250 3.5415 -1.1796 0.3164 0 7
0.0978 3.5540 -1.1818 0.3158 0 7
-0.0300 3.5619 -1.1840 0.3152 0 7
-0.1582 3.5652 -1.1863 0.3147 0 7
-0.2867 3.5640 -1.1885 0.3141 0 7
-0.4153 3.5581 -1.1908 0.3135 0 7
-0.5438 3.5476 -1.1930 0.3129 0 7
-0.6722 3.5324 -1.1952 0.3123 0 7
-0.8001 3.5125 -1.1975 0.3117 0 7
-0.9275 3.4879 -1.1997 0.3111 0 7
-1.0541 3.4587 -1.2019 0.3106 0 7
-1.1798 3.4249 -1.2041 0.3100 0 7
-1.3044 3.3864 -1.2063 0.3094 0 7
-1.4278 3.3433 -1.2084 0.3089 0 7
-1.5497 3.2957 -1.2106 0.3083 0 7
-1.6699 3.2435 -1.2127 0.3078 0 7
-1.7884 3.1868 -1.2147 0.3073 0 7
-1.9049 3.1258 -1.2168 0.3068 0 7
-2.0193 3.0603 -1.2188 0.3063 0 7
-2.1313 2.9906 -1.2207 0.3058 0 7
-1.0045 1.3074 -0.5481 0.5780 47 10
-1.0252 1.2396 -0.5347 0.5925 47 10
-1.0444 1.1742 -0.5224 0.6065 47 10
-1.0622 1.1111 -0.5110 0.6200 47 10
-1.1354 1.1054 -0.5267 0.6620 47 10
-1.2202 1.1054 -0.5473 0.6371 47 10
-1.3120 1.1054 -0.5703 0.6114 47 10
-1.4120 1.1054 -0.5961 0.5850 47 10
-1.5215 1.1054 -0.6251 0.5577 47 10
-1.5759 1.0605 -0.6314 0.3876 47 10
-3.1644 1.9682 -1.2387 0.3013 0 7
-3.2364 1.8552 -1.2400 0.3010 0 7
-3.3041 1.7394 -1.2412 0.3007 0 7
-3.3674 1.6210 -1.2423 0.3005 0 7
-3.4263 1.5003 -1.2433 0.3002 0 7
-3.4806 1.3773 -1.2443 0.3000 0 7
-3.5303 1.2522 -1.2451 0.2998 0 7
-3.5753 1.1253 -1.2459 0.2996 0 7
-3.6154 0.9967 -1.2466 0.2994 0 7
-3.6507 0.8667 -1.2472 0.2993 0 7
-3.6810 0.7353 -1.2478 0.2991 0 7
-3.7064 0.6028 -1.2482 0.2990 0 7
-3.7267 0.4694 -1.2486 0.2990 0 7
-3.7419 0.3353 -1.2488 0.2989 0 7
-3.7521 0.2007 -1.2490 0.2988 0 7
-3.7572 0.0658 -1.2491 0.2988 0 7
-3.7571 -0.0692 -1.2491 0.2988 0 7
-3.7519 -0.2041 -1.2490 0.2989 0 7
-3.7416 -0.3386 -1.2488 0.2989 0 7
-3.7262 -0.4727 -1.2486 0.2990 0 7
-3.7058 -0.6061 -1.2482 0.2990 0 7
-3.6803 -0.7385 -1.2478 0.2991 0 7
-3.6499 -0.8699 -1.2472 0.2993 0 7
-1.4669 -0.4058 -0.5059 0.4837 47 10
-1.4737 -0.4653 -0.5137 0.4764 47 10
-1.4815 -0.5270 -0.5227 0.4682 47 10
-3.4793 -1.3803 -1.2442 0.3000 0 7
-3.4249 -1.5033 -1.2433 0.3002 0 7
-3.3659 -1.6240 -1.2423 0.3005 0 7
-3.2878 -1.7345 -1.2356 0.4901 0 8
-3.0409 -1.7467 -1.1657 0.5196 0 8
-2.8198 -1.7573 -1.1044 0.5484 0 8
-2.7088 -1.8265 -1.0860 0.3017 0 8
-2.6385 -1.9204 -1.0848 0.3020 0 14
-2.5648 -2.0116 -1.0835 0.3024 0 14
-2.4878 -2.0998 -1.0821 0.3027 0 14
-2.4076 -2.1849 -1.0807 0.3031 0 14
-2.3245 -2.2670 -1.0793 0.3035 0 14
-2.2384 -2.3457 -1.0778 0.3040 0 14
-2.1496 -2.4211 -1.0762 0.3044 0 14
-2.0582 -2.4931 -1.0746 0.3048 0 14
-1.9643 -2.5615 -1.0730 0.3053 0 14
-1.8681 -2.6263 -1.0713 0.3058 0 14
-1.7697 -2.6874 -1.0696 0.3063 0 14
-1.2597 -2.0712 -0.8058 0.5624 0 19
-1.1572 -2.0663 -0.7872 0.9442 0 19
-1.0959 -2.1333 -0.7972 0.7302 0 19
-1.3574 -2.8935 -1.0624 0.3084 0 14
-1.2504 -2.9352 -1.0605 0.3089 0 14
-1.1421 -2.9730 -1.0586 0.3094 0 14
-1.0328 -3.0066 -1.0567 0.3100 0 14
-0.9224 -3.0362 -1.0548 0.3106 0 14
-0.8113 -3.0618 -1.0529 0.3111 0 14
-0.6995 -3.0832 -1.0509 0.3117 0 14
1.9019 -2.0709 -1.0055 0.3478 0 14
1.9727 -1.9988 -1.0043 0.3482 0 14
2.0408 -1.9244 -1.0031 0.3486 0 14
2.1062 -1.8478 -1.0019 0.3490 0 8
2.1688 -1.7690 -1.0009 0.3494 0 8
2.3142 -1.7530 -1.0382 0.6227 0 8
2.4825 -1.7438 -1.0849 0.5959 0 8
2.6657 -1.7329 -1.1370 0.3505 0 7
2.7238 -1.6346 -1.1360 0.3508 0 7
2.7784 -1.5344 -1.1350 0.3511 0 7
2.8295 -1.4325 -1.1341 0.3513 0 7
2.8770 -1.3289 -1.1333 0.3516 0 7
2.9209 -1.2239 -1.1325 0.3518 0 6
2.9611 -1.1175 -1.1318 0.3520 0 7
1.4888 -0.5015 -0.5618 0.9326 47 10
1.4920 -0.4436 -0.5567 0.9412 47 10
1.4949 -0.3866 -0.5522 0.9489 47 10
1.4974 -0.3304 -0.5484 0.9555 47 10
1.7164 -0.3145 -0.6240 0.1697 47 10
2.1827 -0.3194 -0.7889 0.9298 47 10
3.1375 -0.3445 -1.1287 0.3530 0 7
3.1474 -0.2316 -1.1286 0.3531 0 7
3.1534 -0.1184 -1.1285 0.3531 0 7
3.1555 -0.0050 -1.1284 0.3531 0 7
3.1537 0.1083 -1.1285 0.3531 0 7
3.1481 0.2216 -1.1286 0.3531 0 7
3.1386 0.3345 -1.1287 0.3530 0 7
3.1252 0.4472 -1.1290 0.3529 0 7
3.1079 0.5593 -1.1293 0.3528 0 7
3.0868 0.6708 -1.1296 0.3527 0 7
3.0619 0.7815 -1.1301 0.3526 0 7
3.0332 0.8914 -1.1306 0.3524 0 7
3.0007 1.0003 -1.1311 0.3523 0 7
2.9645 1.1080 -1.1318 0.3521 0 7
2.9246 1.2145 -1.1325 0.3518 0 7
2.8810 1.3197 -1.1332 0.3516 0 7
2.1832 1.0965 -0.8737 0.8396 47 10
2.0167 1.1054 -0.8224 0.4526 47 10
1.8553 1.1054 -0.7723 0.4819 47 10
1.7123 1.1054 -0.7288 0.5107 47 10
1.5844 1.1054 -0.6908 0.5388 47 10
1.4689 1.1054 -0.6574 0.5662 47 10
1.4316 1.1601 -0.6589 0.7798 47 10
1.4282 1.2450 -0.6776 0.7584 47 10
1.4245 1.3348 -0.6981 0.7361 47 10
2.2546 2.2701 -1.1442 0.3483 0 6
2.1743 2.3525 -1.1456 0.3478 0 7
2.0911 2.4321 -1.1470 0.3474 0 7
2.0050 2.5090 -1.1485 0.3469 0 7
1.9161 2.5828 -1.1501 0.3465 0 7
1.8247 2.6537 -1.1517 0.3460 0 7
1.7306 2.7214 -1.1533 0.3455 0 7
1.6341 2.7859 -1.1550 0.3450 0 7
1.5353 2.8470 -1.1567 0.3445 0 7
1.4343 2.9047 -1.1585 0.3439 0 7
1.3310 2.9590 -1.1603 0.3434 0 7
1.2258 3.0096 -1.1621 0.3429 0 7
1.1188 3.0566 -1.1640 0.3423 0 7
1.0099 3.0999 -1.1659 0.3418 0 7
0.8994 3.1394 -1.1678 0.3412 0 7
0.7873 3.1749 -1.1698 0.3406 0 7
0.6739 3.2066 -1.1717 0.3401 0 7
0.5593 3.2342 -1.1737 0.3395 0 7
0.4435 3.2578 -1.1758 0.3389 0 7
0.3268 3.2773 -1.1778 0.3383 0 7
0.2092 3.2927 -1.1799 0.3377 0 7
0.0909 3.3038 -1.1819 0.3371 0 7
-0.0278 3.3108 -1.1840 0.3365 0 7
-0.1470 3.3134 -1.1861 0.3359 0 7
-0.2664 3.3118 -1.1882 0.3354 0 7
-0.3858 3.3059 -1.1902 0.3348 0 7
-0.5052 3.2957 -1.1923 0.3342 0 7
-0.6244 3.2811 -1.1944 0.3336 0 7
-0.7431 3.2622 -1.1965 0.3330 0 7
-0.8613 3.2390 -1.1985 0.3324 0 7
-0.9788 3.2115 -1.2006 0.3319 0 7
-1.0953 3.1796 -1.2026 0.3313 0 7
-1.2109 3.1435 -1.2046 0.3308 0 7
-1.3252 3.1031 -1.2066 0.3302 0 7
-1.4381 3.0585 -1.2086 0.3297 0 7
-1.5496 3.0097 -1.2106 0.3292 0 7
-1.6593 2.9568 -1.2125 0.3286 0 7
-1.7672 2.8997 -1.2144 0.3281 0 7
-1.8730 2.8387 -1.2162 0.3276 0 7
-0.9570 1.3429 -0.5897 0.6409 47 10
-0.9708 1.2636 -0.5698 0.6633 47 10
-0.9916 1.1989 -0.5564 0.6078 47 10
-1.0109 1.1365 -0.5439 0.6217 47 10
-1.0567 1.1054 -0.5469 0.6806 47 10
-1.1354 1.1054 -0.5667 0.6568 47 10
-1.2202 1.1054 -0.5888 0.6322 47 10
-1.3120 1.1054 -0.6135 0.6067 47 10
-1.4120 1.1054 -0.6413 0.5804 47 10
-1.5215 1.1054 -0.6725 0.5534 47 10
-1.6121 1.0849 -0.6949 0.7256 47 10
-2.9318 1.8235 -1.2347 0.3227 0 7
-2.9982 1.7187 -1.2358 0.3224 0 7
-3.0607 1.6113 -1.2369 0.3221 0 7
-3.1192 1.5015 -1.2380 0.3219 0 7
-3.1735 1.3896 -1.2389 0.3216 0 7
-3.2237 1.2756 -1.2398 0.3214 0 7
-3.2695 1.1597 -1.2406 0.3212 0 7
-3.3110 1.0422 -1.2413 0.3210 0 7
-3.3480 0.9230 -1.2420 0.3208 0 7
-3.3806 0.8025 -1.2425 0.3207 0 7
-3.4086 0.6809 -1.2430 0.3206 0 7
-3.4320 0.5582 -1.2434 0.3205 0 7
-3.4507 0.4347 -1.2437 0.3204 0 7
-3.4648 0.3105 -1.2440 0.3203 0 7
-3.4741 0.1859 -1.2442 0.3203 0 7
-3.4788 0.0610 -1.2442 0.3202 0 7
-3.4787 -0.0640 -1.2442 0.3202 0 7
-3.4740 -0.1889 -1.2442 0.3203 0 7
-3.4645 -0.3136 -1.2440 0.3203 0 7
-3.4503 -0.4377 -1.2437 0.3204 0 7
-3.4314 -0.5612 -1.2434 0.3205 0 7
-1.5039 -0.3018 -0.5485 0.4762 47 10
-1.3196 -0.3145 -0.4851 0.2183 47 10
-1.2883 -0.3564 -0.4780 0.1365 47 10
-1.2559 -0.3965 -0.4710 0.1385 47 10
-1.2299 -0.4375 -0.4668 0.4892 47 10
-1.2187 -0.4835 -0.4689 0.4871 47 10
