ply
format ascii 1.0
element vertex 1604
property float32 x
property float32 y
property float32 z
property float32 I
end_header
1.7418 -0.3990 -0.4200 0.9927
4.6574 -0.5493 -1.1022 0.9809
4.6730 -0.3816 -1.1019 0.9809
4.6860 0.1233 -1.1017 0.9809
4.6665 0.4595 -1.1020 0.9809
4.5198 1.2888 -1.1046 0.9809
4.4738 1.4514 -1.1054 0.9809
4.4224 1.6124 -1.1063 0.9808
4.3033 1.9294 -1.1084 0.9808
4.2357 2.0849 -1.1095 0.9808
2.0984 1.1283 -0.5599 0.9903
1.7430 1.1054 -0.4851 0.9916
1.6119 1.1054 -0.4594 0.9920
1.5971 1.1818 -0.4669 0.9919
1.5840 1.2626 -0.4761 0.9917
1.5697 1.3462 -0.4860 0.9915
3.3980 3.3665 -1.1242 0.9805
3.2808 3.4927 -1.1262 0.9805
3.0332 3.7335 -1.1305 0.9804
2.9030 3.8477 -1.1328 0.9804
2.7686 3.9577 -1.1352 0.9803
2.6303 4.0632 -1.1376 0.9803
2.4881 4.1641 -1.1401 0.9803
2.3421 4.2603 -1.1426 0.9802
2.0396 4.4379 -1.1479 0.9801
1.2288 4.7892 -1.1620 0.9799
1.0587 4.8426 -1.1650 0.9798
0.8864 4.8901 -1.1680 0.9798
0.3580 4.9962 -1.1772 0.9796
0.1788 5.0191 -1.1804 0.9796
-0.0016 5.0357 -1.1835 0.9795
-0.1829 5.0459 -1.1867 0.9795
-0.5476 5.0466 -1.1930 0.9794
-0.7305 5.0372 -1.1962 0.9793
-0.9134 5.0210 -1.1994 0.9792
-1.0960 4.9982 -1.2026 0.9792
-1.2782 4.9688 -1.2058 0.9791
-1.4597 4.9326 -1.2090 0.9791
-1.6402 4.8897 -1.2121 0.9790
-1.9972 4.7838 -1.2183 0.9789
-2.1732 4.7208 -1.2214 0.9789
-2.5189 4.5751 -1.2274 0.9788
-2.8544 4.4034 -1.2333 0.9787
-3.0177 4.3079 -1.2362 0.9786
-3.1776 4.2063 -1.2389 0.9786
-3.6349 3.8648 -1.2469 0.9784
-3.7790 3.7393 -1.2494 0.9784
3.9921 1.6025 -1.1138 0.9824
1.9066 1.1054 -0.5706 0.9909
1.7579 1.1054 -0.5376 0.9915
1.5383 1.2165 -0.5078 0.9919
3.2127 2.9392 -1.1274 0.9822
3.1100 3.0575 -1.1292 0.9821
2.8921 3.2839 -1.1330 0.9821
2.7772 3.3917 -1.1350 0.9821
2.4098 3.6915 -1.1414 0.9819
2.0109 3.9532 -1.1484 0.9818
1.8716 4.0315 -1.1508 0.9818
1.7293 4.1049 -1.1533 0.9818
1.5842 4.1735 -1.1558 0.9817
1.4365 4.2372 -1.1584 0.9817
1.2863 4.2957 -1.1610 0.9816
0.9791 4.3972 -1.1664 0.9816
0.8224 4.4399 -1.1691 0.9815
0.5039 4.5088 -1.1747 0.9814
0.3425 4.5349 -1.1775 0.9814
0.1798 4.5552 -1.1803 0.9813
-0.8104 4.5540 -1.1976 0.9811
-0.9757 4.5328 -1.2005 0.9810
-1.1407 4.5056 -1.2034 0.9810
-1.7909 4.3364 -1.2147 0.9808
-1.9499 4.2790 -1.2175 0.9808
-2.1071 4.2157 -1.2203 0.9807
-2.2622 4.1464 -1.2230 0.9807
-2.4149 4.0714 -1.2256 0.9806
-2.8567 3.8118 -1.2333 0.9805
-1.2301 1.3180 -0.4668 0.9926
-1.3352 1.3313 -0.4882 0.9922
-3.6462 3.1474 -1.2471 0.9803
-3.8751 2.8867 -1.2511 0.9802
-4.0842 2.6086 -1.2548 0.9802
-4.3576 2.1624 -1.2595 0.9801
-4.5112 1.8479 -1.2622 0.9801
-4.5790 1.6862 -1.2634 0.9800
-4.6405 1.5220 -1.2645 0.9800
-4.7446 1.1866 -1.2663 0.9800
-4.8227 0.8438 -1.2677 0.9800
-4.8519 0.6703 -1.2682 0.9800
-4.8901 0.3205 -1.2688 0.9800
-4.9012 -0.0314 -1.2690 0.9800
-4.8422 -0.7324 -1.2680 0.9800
-4.8107 -0.9055 -1.2675 0.9800
-4.7726 -1.0771 -1.2668 0.9800
-4.6768 -1.4151 -1.2651 0.9800
-4.6193 -1.5809 -1.2641 0.9800
-4.5307 -1.7348 -1.2561 0.9802
-3.8701 -1.8103 -1.1062 0.9825
-3.6396 -2.2080 -1.1022 0.9826
-3.4619 -2.4567 -1.0991 0.9826
-3.3663 -2.5755 -1.0974 0.9826
-2.5271 -2.0815 -0.8477 0.9866
-3.0545 -2.9082 -1.0920 0.9827
-2.9428 -3.0106 -1.0900 0.9828
-2.8276 -3.1086 -1.0880 0.9828
-2.5871 -3.2909 -1.0838 0.9829
-2.4623 -3.3749 -1.0817 0.9829
-2.3346 -3.4540 -1.0794 0.9829
-1.1121 -2.1021 -0.6158 0.9902
-1.2374 -3.9036 -1.0603 0.9832
-0.9495 -3.9635 -1.0553 0.9833
-0.6593 -4.0021 -1.0502 0.9834
-0.5139 -4.0135 -1.0477 0.9834
-0.2233 -4.0205 -1.0426 0.9835
-0.0786 -4.0162 -1.0401 0.9835
0.1821 -2.0588 -0.5352 0.9915
0.2585 -2.0719 -0.5406 0.9914
0.6326 -3.9183 -1.0276 0.9837
0.9080 -3.8447 -1.0228 0.9838
1.1762 -3.7523 -1.0181 0.9839
1.3073 -3.6993 -1.0159 0.9839
1.6866 -3.5142 -1.0092 0.9840
1.8079 -3.4441 -1.0071 0.9841
2.0422 -3.2920 -1.0030 0.9841
1.6062 -2.0566 -0.6756 0.9893
2.6696 -2.7487 -0.9921 0.9843
2.7620 -2.6467 -0.9905 0.9843
2.9359 -2.4341 -0.9874 0.9844
3.9563 -1.6952 -1.1144 0.9824
4.0611 -1.4045 -1.1126 0.9824
1.6359 -0.5007 -0.4429 0.9930
1.6533 -0.3787 -0.4392 0.9930
2.0351 -0.3145 -0.5332 0.9915
4.2546 -0.5018 -1.1092 0.9825
4.2780 -0.1950 -1.1088 0.9825
4.2744 0.2663 -1.1089 0.9825
4.2462 0.5727 -1.1094 0.9825
4.1973 0.8768 -1.1102 0.9824
4.0858 1.3255 -1.1122 0.9824
4.0386 1.4725 -1.1130 0.9824
3.9863 1.6179 -1.1139 0.9824
2.1317 1.0493 -0.6152 0.9902
1.7430 1.1054 -0.5344 0.9915
1.5504 1.1472 -0.4994 0.9921
3.2019 2.9520 -1.1276 0.9822
2.9914 3.1846 -1.1313 0.9821
2.8800 3.2956 -1.1332 0.9821
2.6455 3.5065 -1.1373 0.9820
2.3961 3.7015 -1.1417 0.9819
2.2661 3.7927 -1.1439 0.9819
1.9962 3.9618 -1.1486 0.9818
1.8565 4.0395 -1.1511 0.9818
1.7139 4.1125 -1.1536 0.9818
1.5686 4.1806 -1.1561 0.9817
1.2701 4.3017 -1.1613 0.9816
1.1173 4.3545 -1.1640 0.9816
0.9624 4.4020 -1.1667 0.9816
0.8056 4.4442 -1.1694 0.9815
0.4867 4.5119 -1.1750 0.9814
-0.0014 4.5710 -1.1835 0.9813
-0.1660 4.5791 -1.1864 0.9812
-0.8280 4.5520 -1.1979 0.9811
-0.9934 4.5302 -1.2008 0.9810
-1.3224 4.4685 -1.2066 0.9809
-1.4855 4.4285 -1.2094 0.9809
-1.8080 4.3305 -1.2150 0.9808
-2.1238 4.2086 -1.2206 0.9807
-2.5809 3.9815 -1.2285 0.9806
-2.8719 3.8016 -1.2336 0.9805
-3.1498 3.5997 -1.2385 0.9804
-1.2335 1.3115 -0.4662 0.9926
-3.5380 3.2578 -1.2452 0.9803
-3.6589 3.1339 -1.2473 0.9803
3.6697 1.4730 -1.1194 0.9837
2.0749 1.1054 -0.6655 0.9903
1.5092 1.1078 -0.5300 0.9922
1.5015 1.1874 -0.5419 0.9921
2.9502 2.6991 -1.1320 0.9835
2.7570 2.9126 -1.1354 0.9835
2.6548 3.0145 -1.1371 0.9834
2.5490 3.1129 -1.1390 0.9834
2.4396 3.2078 -1.1409 0.9834
2.3268 3.2991 -1.1429 0.9834
2.2107 3.3865 -1.1449 0.9833
2.0915 3.4700 -1.1470 0.9833
1.4518 3.8248 -1.1581 0.9831
1.1783 3.9353 -1.1629 0.9831
0.8966 4.0267 -1.1678 0.9830
0.1645 4.1672 -1.1806 0.9828
0.0147 4.1796 -1.1832 0.9828
-0.2866 4.1884 -1.1885 0.9827
-0.4378 4.1847 -1.1911 0.9827
-0.5892 4.1755 -1.1938 0.9826
-1.1915 4.0837 -1.2043 0.9825
-1.4879 4.0048 -1.2095 0.9824
-1.6343 3.9571 -1.2120 0.9824
-1.7790 3.9040 -1.2145 0.9823
-2.2020 3.7124 -1.2219 0.9822
-2.3384 3.6380 -1.2243 0.9822
-2.4723 3.5584 -1.2266 0.9821
-2.7314 3.3842 -1.2312 0.9821
-1.1569 1.2396 -0.4800 0.9930
-1.2806 1.1054 -0.4789 0.9930
-1.4818 1.1039 -0.5231 0.9923
-3.6240 2.5024 -1.2467 0.9819
-3.7163 2.3737 -1.2484 0.9818
-3.8038 2.2414 -1.2499 0.9818
-3.8864 2.1057 -1.2513 0.9818
-4.1639 1.5334 -1.2562 0.9817
-4.2196 1.3839 -1.2571 0.9817
-4.3137 1.0788 -1.2588 0.9817
-4.3519 0.9237 -1.2594 0.9817
-4.3843 0.7671 -1.2600 0.9817
-4.4106 0.6094 -1.2605 0.9817
-4.4309 0.4507 -1.2608 0.9817
-4.4532 0.1315 -1.2612 0.9816
-4.4243 -0.5074 -1.2607 0.9817
-4.2523 -1.2867 -1.2577 0.9817
-3.7380 -1.7485 -1.1682 0.9830
-3.4551 -1.7701 -1.0990 0.9840
-3.2332 -2.1239 -1.0951 0.9840
-3.0641 -2.3442 -1.0922 0.9841
-2.5262 -2.0807 -0.9265 0.9865
-2.7815 -2.6482 -1.0872 0.9842
-2.6802 -2.7420 -1.0855 0.9842
-2.4680 -2.9173 -1.0818 0.9842
-2.3574 -2.9987 -1.0798 0.9843
-2.1281 -3.1485 -1.0758 0.9843
-1.5162 -3.4435 -1.0651 0.9845
-0.7350 -3.6409 -1.0515 0.9847
-0.4697 -3.6681 -1.0469 0.9847
-0.0719 -3.6728 -1.0399 0.9848
0.1103 -2.1080 -0.5976 0.9913
0.2585 -2.0715 -0.5910 0.9914
0.5791 -3.5869 -1.0286 0.9850
0.8315 -3.5209 -1.0242 0.9851
1.1979 -3.3897 -1.0178 0.9852
1.3162 -3.3377 -1.0157 0.9852
1.4324 -3.2818 -1.0137 0.9852
1.5463 -3.2219 -1.0117 0.9853
1.8733 -3.0197 -1.0060 0.9853
1.9769 -2.9452 -1.0042 0.9854
1.5259 -2.1056 -0.7361 0.9892
1.6064 -2.0570 -0.7389 0.9892
2.2706 -2.7016 -0.9990 0.9854
2.5362 -2.4303 -0.9944 0.9855
2.6966 -2.2356 -0.9916 0.9855
2.8428 -2.0310 -0.9891 0.9856
2.9104 -1.9253 -0.9879 0.9856
2.9743 -1.8175 -0.9868 0.9856
3.1186 -1.7550 -1.0131 0.9852
1.5856 -0.5484 -0.4750 0.9930
1.5912 -0.4870 -0.4711 0.9931
2.0351 -0.3145 -0.5830 0.9915
3.9122 -0.4614 -1.1152 0.9838
3.9255 -0.3206 -1.1150 0.9838
3.9339 -0.1793 -1.1148 0.9838
3.9376 -0.0379 -1.1148 0.9838
3.9306 0.2449 -1.1149 0.9838
3.8842 0.6668 -1.1157 0.9837
3.8296 0.9447 -1.1166 0.9837
3.7126 1.3536 -1.1187 0.9837
3.6643 1.4872 -1.1195 0.9837
1.7430 1.1054 -0.5843 0.9915
1.6119 1.1054 -0.5533 0.9919
1.5007 1.1962 -0.5433 0.9921
1.4922 1.2797 -0.5565 0.9919
2.8452 2.8188 -1.1338 0.9835
2.7463 2.9236 -1.1355 0.9835
2.6437 3.0252 -1.1373 0.9834
2.5374 3.1232 -1.1392 0.9834
2.3146 3.3086 -1.1431 0.9834
2.0785 3.4787 -1.1472 0.9833
1.9559 3.5578 -1.1493 0.9833
1.7020 3.7032 -1.1538 0.9832
1.5709 3.7694 -1.1561 0.9832
1.3016 3.8882 -1.1608 0.9831
0.7375 4.0688 -1.1706 0.9830
0.5922 4.1015 -1.1731 0.9829
0.2975 4.1516 -1.1783 0.9828
-0.0013 4.1806 -1.1835 0.9828
-0.1518 4.1872 -1.1861 0.9827
-0.3028 4.1883 -1.1888 0.9827
-1.2074 4.0801 -1.2046 0.9825
-1.3561 4.0428 -1.2072 0.9824
-1.6498 3.9517 -1.2123 0.9824
-1.7944 3.8980 -1.2148 0.9823
-1.9372 3.8389 -1.2173 0.9823
-2.0781 3.7744 -1.2198 0.9822
-2.2167 3.7047 -1.2222 0.9822
-2.6172 3.4645 -1.2292 0.9821
-1.2185 1.1220 -0.4689 0.9931
-1.2906 1.1054 -0.4810 0.9930
2.0749 1.1054 -0.7231 0.9902
1.4686 1.2497 -0.5931 0.9920
2.5458 2.6894 -1.1390 0.9846
2.2518 2.9610 -1.1442 0.9846
2.0400 3.1250 -1.1479 0.9845
1.9297 3.2017 -1.1498 0.9845
1.3385 3.5263 -1.1601 0.9843
0.9569 3.6708 -1.1668 0.9843
0.6936 3.7447 -1.1714 0.9842
0.5598 3.7747 -1.1737 0.9842
0.2885 3.8205 -1.1784 0.9841
0.1514 3.8362 -1.1808 0.9841
0.0136 3.8470 -1.1832 0.9840
-0.1249 3.8528 -1.1857 0.9840
-0.4028 3.8496 -1.1905 0.9839
-0.5419 3.8405 -1.1929 0.9839
-0.6809 3.8263 -1.1954 0.9839
-0.8195 3.8070 -1.1978 0.9838
-1.2316 3.7190 -1.2050 0.9837
-1.3671 3.6796 -1.2073 0.9837
-1.6340 3.5857 -1.2120 0.9836
-2.3888 3.1875 -1.2252 0.9835
-1.0540 1.3059 -0.5162 0.9930
-1.0735 1.2364 -0.5036 0.9932
-1.0915 1.1695 -0.4921 0.9933
-1.1912 1.1054 -0.4998 0.9932
-1.2806 1.1054 -0.5203 0.9929
-1.5408 1.1478 -0.5909 0.9920
-1.5214 1.0506 -0.5687 0.9923
-3.6971 1.6719 -1.2480 0.9832
-3.7580 1.5393 -1.2491 0.9831
-3.8138 1.4045 -1.2501 0.9831
-3.8645 1.2675 -1.2509 0.9831
-3.9100 1.1286 -1.2517 0.9831
-3.9503 0.9879 -1.2524 0.9831
-3.9851 0.8458 -1.2530 0.9831
-4.0146 0.7024 -1.2536 0.9831
-4.0386 0.5580 -1.2540 0.9831
-4.0570 0.4127 -1.2543 0.9831
-4.0700 0.2667 -1.2545 0.9831
-4.0660 -0.3189 -1.2545 0.9831
-4.0511 -0.4646 -1.2542 0.9831
-4.0047 -0.7538 -1.2534 0.9831
-3.9733 -0.8967 -1.2528 0.9831
-3.8944 -1.1784 -1.2515 0.9831
-3.8470 -1.3166 -1.2506 0.9831
-3.7944 -1.4529 -1.2497 0.9831
-3.7368 -1.5869 -1.2487 0.9832
-3.4074 -1.7457 -1.1776 0.9841
-3.1468 -1.7576 -1.1086 0.9850
-3.0344 -1.8409 -1.0916 0.9853
-2.8877 -2.0491 -1.0891 0.9853
-2.8086 -2.1488 -1.0877 0.9853
-2.5257 -2.0803 -1.0064 0.9864
-2.5156 -2.2284 -1.0336 0.9860
-2.5506 -2.4284 -1.0832 0.9854
-2.4580 -2.5147 -1.0816 0.9854
-2.1629 -2.7513 -1.0764 0.9855
-1.9532 -2.8896 -1.0728 0.9855
-1.1110 -2.1000 -0.7307 0.9901
-1.2757 -3.2048 -1.0609 0.9857
-1.1575 -3.2422 -1.0589 0.9857
-0.9181 -3.3039 -1.0547 0.9858
-0.7973 -3.3280 -1.0526 0.9858
-0.6758 -3.3478 -1.0505 0.9858
-0.5540 -3.3631 -1.0484 0.9858
-0.4320 -3.3739 -1.0462 0.9859
-0.3099 -3.3804 -1.0441 0.9859
0.1104 -2.1099 -0.6499 0.9912
0.5334 -3.3039 -1.0294 0.9861
0.7662 -3.2442 -1.0253 0.9861
0.8805 -3.2084 -1.0233 0.9862
1.4261 -2.9715 -1.0138 0.9863
1.5292 -2.9132 -1.0120 0.9863
1.6300 -2.8514 -1.0102 0.9863
1.7285 -2.7863 -1.0085 0.9864
1.6067 -2.0573 -0.8029 0.9891
2.3423 -2.2444 -0.9978 0.9865
2.4182 -2.1560 -0.9965 0.9865
2.4909 -2.0651 -0.9952 0.9866
2.6892 -1.7790 -0.9917 0.9866
3.2547 -1.6807 -1.1267 0.9848
3.3101 -1.5613 -1.1257 0.9848
3.3614 -1.4403 -1.1248 0.9848
1.5453 -0.5344 -0.5029 0.9932
1.5510 -0.4748 -0.4989 0.9932
1.5605 -0.3575 -0.4924 0.9933
1.6420 -0.3145 -0.5142 0.9930
2.0351 -0.3145 -0.6334 0.9914
3.6297 -0.2964 -1.1201 0.9849
3.6344 0.2264 -1.1200 0.9849
3.6245 0.3569 -1.1202 0.9849
3.6102 0.4870 -1.1205 0.9849
3.5914 0.6165 -1.1208 0.9849
3.5407 0.8734 -1.1217 0.9849
3.4725 1.1265 -1.1229 0.9848
2.1814 1.0737 -0.7478 0.9899
1.7430 1.1054 -0.6348 0.9914
1.6119 1.1054 -0.6012 0.9919
1.4939 1.1054 -0.5716 0.9923
1.4765 1.1769 -0.5808 0.9921
1.4676 1.2586 -0.5947 0.9919
1.4578 1.3440 -0.6099 0.9917
2.6275 2.6031 -1.1376 0.9846
2.5359 2.6996 -1.1392 0.9846
2.1361 3.0535 -1.1462 0.9845
1.9177 3.2096 -1.1500 0.9845
1.6882 3.3507 -1.1540 0.9844
1.1998 3.5842 -1.1625 0.9843
1.0723 3.6319 -1.1648 0.9843
0.5454 3.7776 -1.1740 0.9842
0.4102 3.8024 -1.1763 0.9841
0.2739 3.8224 -1.1787 0.9841
0.1367 3.8375 -1.1811 0.9841
-0.0012 3.8478 -1.1835 0.9840
-0.2786 3.8535 -1.1883 0.9840
-0.5568 3.8392 -1.1932 0.9839
-0.8343 3.8047 -1.1980 0.9838
-0.9724 3.7799 -1.2005 0.9838
-1.2462 3.7150 -1.2052 0.9837
-1.3815 3.6751 -1.2076 0.9837
-1.5155 3.6301 -1.2099 0.9837
-1.7790 3.5253 -1.2145 0.9836
-1.9080 3.4655 -1.2168 0.9836
-2.4015 3.1789 -1.2254 0.9835
-1.0562 1.2984 -0.5148 0.9930
-1.2906 1.1054 -0.5226 0.9929
3.1919 1.1499 -1.1278 0.9858
3.1506 1.2646 -1.1285 0.9858
2.1828 1.0640 -0.8072 0.9898
2.0749 1.1054 -0.7815 0.9901
1.9066 1.1054 -0.7326 0.9908
1.6252 1.1054 -0.6533 0.9917
1.5059 1.1054 -0.6210 0.9922
1.4538 1.1497 -0.6161 0.9922
2.2742 2.5823 -1.1438 0.9856
2.0888 2.7466 -1.1470 0.9856
1.8919 2.8981 -1.1505 0.9855
1.6843 3.0360 -1.1541 0.9855
1.4668 3.1595 -1.1579 0.9854
1.1242 3.3160 -1.1639 0.9853
0.7651 3.4360 -1.1701 0.9853
0.5183 3.4949 -1.1744 0.9852
0.3932 3.5178 -1.1766 0.9852
-0.1155 3.5646 -1.1855 0.9851
-0.6295 3.5378 -1.1945 0.9850
-0.8852 3.4965 -1.1989 0.9849
-1.0121 3.4689 -1.2011 0.9849
-1.1381 3.4366 -1.2033 0.9849
-1.2631 3.3996 -1.2055 0.9848
-1.5092 3.3119 -1.2098 0.9848
-1.6301 3.2613 -1.2119 0.9847
-2.0942 3.0142 -1.2200 0.9846
-1.0185 1.2619 -0.5390 0.9932
-1.0382 1.1957 -0.5264 0.9933
-1.0564 1.1319 -0.5147 0.9935
-1.2806 1.1054 -0.5623 0.9929
-1.3777 1.1054 -0.5871 0.9926
-1.4839 1.1054 -0.6151 0.9922
-1.5828 1.0930 -0.6394 0.9919
-3.2819 1.7782 -1.2408 0.9844
-3.4071 1.5407 -1.2430 0.9844
-3.6394 0.9102 -1.2470 0.9843
-3.6714 0.7792 -1.2476 0.9843
-3.6984 0.6471 -1.2480 0.9843
-3.7204 0.5140 -1.2484 0.9843
-3.7541 -0.1590 -1.2490 0.9843
-3.7455 -0.2937 -1.2489 0.9843
-3.7319 -0.4280 -1.2486 0.9843
-3.6893 -0.6944 -1.2479 0.9843
-3.6605 -0.8261 -1.2474 0.9843
-1.4649 -0.3864 -0.5036 0.9936
-3.4964 -1.3388 -1.2445 0.9843
-3.4435 -1.4624 -1.2436 0.9844
-3.3241 -1.7030 -1.2415 0.9844
-2.8911 -1.7539 -1.1240 0.9858
-2.7315 -1.7944 -1.0864 0.9863
-2.2675 -2.3197 -1.0783 0.9864
-2.1796 -2.3962 -1.0767 0.9864
-2.0890 -2.4693 -1.0751 0.9865
-1.9960 -2.5389 -1.0735 0.9865
-1.8029 -2.6673 -1.0701 0.9865
-1.1838 -2.0554 -0.7884 0.9901
-1.1104 -2.0989 -0.7893 0.9900
-1.3929 -2.8786 -1.0630 0.9866
-1.2864 -2.9216 -1.0611 0.9866
-1.0695 -2.9957 -1.0573 0.9867
-0.8486 -3.0536 -1.0535 0.9867
-0.7370 -3.0764 -1.0515 0.9868
-0.5123 -3.1097 -1.0476 0.9868
-0.3995 -3.1202 -1.0457 0.9868
-0.2866 -3.1267 -1.0437 0.9869
-0.1738 -3.1290 -1.0417 0.9869
0.2584 -2.0708 -0.6937 0.9912
0.4939 -3.0592 -1.0301 0.9870
0.9202 -2.9356 -1.0226 0.9871
1.2243 -2.8049 -1.0173 0.9872
1.3220 -2.7545 -1.0156 0.9872
1.6028 -2.5838 -1.0107 0.9873
1.5273 -2.1076 -0.8652 0.9891
2.1737 -2.0829 -1.0007 0.9874
2.6439 -1.7490 -1.0538 0.9867
2.8447 -1.7383 -1.1082 0.9860
2.9670 -1.6697 -1.1317 0.9858
3.1219 -1.3377 -1.1290 0.9858
3.1658 -1.2238 -1.1282 0.9858
1.5088 -0.5218 -0.5307 0.9933
1.6420 -0.3145 -0.5557 0.9930
3.3721 -0.2754 -1.1246 0.9858
3.3794 -0.1541 -1.1245 0.9858
3.3826 -0.0326 -1.1244 0.9858
3.3816 0.0890 -1.1245 0.9858
3.3673 0.3316 -1.1247 0.9858
3.2593 0.9294 -1.1266 0.9858
3.1877 1.1623 -1.1278 0.9858
3.1459 1.2768 -1.1286 0.9858
3.1002 1.3900 -1.1294 0.9858
1.8898 1.1054 -0.7277 0.9908
1.6119 1.1054 -0.6497 0.9918
1.4939 1.1054 -0.6177 0.9922
1.4336 1.3217 -0.6481 0.9918
2.4383 2.4157 -1.1409 0.9856
1.9812 2.8321 -1.1489 0.9855
1.7783 2.9762 -1.1524 0.9855
1.5651 3.1062 -1.1562 0.9854
1.4549 3.1656 -1.1581 0.9854
1.3425 3.2213 -1.1600 0.9854
1.2281 3.2731 -1.1620 0.9854
1.1116 3.3209 -1.1641 0.9853
0.7520 3.4396 -1.1704 0.9853
0.6291 3.4708 -1.1725 0.9852
0.5050 3.4976 -1.1747 0.9852
0.3797 3.5200 -1.1769 0.9852
0.2535 3.5380 -1.1791 0.9852
0.1265 3.5515 -1.1813 0.9851
-0.1292 3.5648 -1.1857 0.9851
-0.2577 3.5646 -1.1880 0.9850
-0.5149 3.5503 -1.1925 0.9850
-0.8988 3.4938 -1.1992 0.9849
-1.1515 3.4328 -1.2036 0.9849
-1.4000 3.3534 -1.2079 0.9848
-1.5222 3.3067 -1.2101 0.9848
-1.7618 3.1999 -1.2142 0.9847
-1.9936 3.0754 -1.2183 0.9847
-2.1061 3.0067 -1.2202 0.9846
-0.9996 1.3232 -0.5512 0.9930
-1.0207 1.2547 -0.5376 0.9932
-1.0583 1.1252 -0.5135 0.9935
-1.1171 1.1054 -0.5224 0.9934
-1.2005 1.1054 -0.5424 0.9931
-1.2906 1.1054 -0.5648 0.9929
2.9769 1.0725 -1.1315 0.9866
2.9382 1.1794 -1.1322 0.9866
2.8958 1.2850 -1.1329 0.9866
2.1831 1.0642 -0.8685 0.9897
2.0749 1.1054 -0.8407 0.9901
1.9066 1.1054 -0.7881 0.9907
1.7578 1.1054 -0.7426 0.9912
1.6252 1.1054 -0.7029 0.9917
1.4326 1.1330 -0.6532 0.9923
1.4294 1.2163 -0.6712 0.9921
1.9458 2.5586 -1.1495 0.9864
1.7620 2.6992 -1.1527 0.9864
1.4680 2.8859 -1.1579 0.9863
1.2609 2.9931 -1.1615 0.9863
1.1545 3.0414 -1.1633 0.9863
1.0462 3.0859 -1.1652 0.9863
0.9362 3.1266 -1.1671 0.9862
0.8247 3.1635 -1.1691 0.9862
0.5975 3.2254 -1.1731 0.9862
0.4820 3.2504 -1.1751 0.9861
0.3656 3.2712 -1.1771 0.9861
-0.2267 3.3128 -1.1874 0.9860
-0.3461 3.3083 -1.1895 0.9860
-0.4656 3.2995 -1.1916 0.9859
-0.5848 3.2864 -1.1937 0.9859
-0.7037 3.2689 -1.1958 0.9859
-0.8220 3.2471 -1.1978 0.9859
-0.9398 3.2210 -1.1999 0.9858
-1.0566 3.1906 -1.2019 0.9858
-1.5126 3.0263 -1.2099 0.9857
-1.0046 1.1571 -0.5480 0.9935
-1.1086 1.1054 -0.5598 0.9934
-1.1912 1.1054 -0.5811 0.9931
-1.2806 1.1054 -0.6050 0.9928
-1.6129 1.1137 -0.7009 0.9917
-2.9087 1.8578 -1.2343 0.9854
-2.9764 1.7538 -1.2354 0.9854
-3.0402 1.6473 -1.2366 0.9854
-3.3997 0.7216 -1.2428 0.9853
-3.4449 0.4759 -1.2436 0.9853
-3.4792 -0.0223 -1.2442 0.9853
-1.3936 -0.3145 -0.5109 0.9939
-1.2106 -0.5141 -0.4703 0.9944
-3.1364 -1.4671 -1.2382 0.9854
-3.0792 -1.5775 -1.2372 0.9854
-3.0179 -1.6856 -1.2362 0.9854
-2.8679 -1.7399 -1.1996 0.9859
-2.3999 -1.8361 -1.0806 0.9872
-2.1020 -2.1504 -1.0754 0.9873
-1.9370 -2.2896 -1.0725 0.9873
-1.7626 -2.4159 -1.0694 0.9874
-1.5799 -2.5287 -1.0663 0.9874
-1.1836 -2.0551 -0.8481 0.9900
-1.2926 -2.6713 -1.0612 0.9875
-0.9929 -2.7811 -1.0560 0.9875
-0.7880 -2.8355 -1.0524 0.9876
-0.5804 -2.8749 -1.0488 0.9876
-0.2664 -2.9053 -1.0433 0.9877
-0.1615 -2.9079 -1.0415 0.9877
-0.0569 -2.9067 -1.0397 0.9877
0.0475 -2.9018 -1.0379 0.9877
0.1106 -2.1139 -0.7570 0.9910
0.1822 -2.0603 -0.7396 0.9913
0.2583 -2.0704 -0.7461 0.9912
0.4593 -2.8453 -1.0307 0.9878
0.5603 -2.8221 -1.0289 0.9879
0.6602 -2.7954 -1.0272 0.9879
0.7589 -2.7652 -1.0254 0.9879
0.9523 -2.6947 -1.0221 0.9879
1.0468 -2.6545 -1.0204 0.9880
1.2307 -2.5644 -1.0172 0.9880
1.5280 -2.1086 -0.9312 0.9890
1.8119 -2.1558 -1.0071 0.9881
2.0918 -1.8650 -1.0022 0.9882
2.1550 -1.7867 -1.0011 0.9882
2.2785 -1.7549 -1.0285 0.9879
2.4437 -1.7459 -1.0740 0.9873
2.8666 -1.3521 -1.1334 0.9866
2.9114 -1.2474 -1.1327 0.9866
2.9524 -1.1414 -1.1319 0.9866
1.4943 -0.3993 -0.5531 0.9935
1.6419 -0.3145 -0.5978 0.9929
2.0351 -0.3145 -0.7364 0.9913
3.1454 -0.2569 -1.1286 0.9867
3.1523 -0.1437 -1.1285 0.9867
3.1409 0.3093 -1.1287 0.9867
3.1284 0.4220 -1.1289 0.9867
3.1120 0.5342 -1.1292 0.9867
3.0677 0.7568 -1.1299 0.9867
3.0399 0.8668 -1.1304 0.9867
2.8911 1.2962 -1.1330 0.9866
2.1831 1.0746 -0.8702 0.9897
1.8898 1.1054 -0.7829 0.9907
1.4939 1.1054 -0.6646 0.9921
1.4323 1.1417 -0.6550 0.9922
1.4290 1.2255 -0.6732 0.9920
1.4254 1.3141 -0.6933 0.9918
2.1100 2.4144 -1.1467 0.9865
2.0245 2.4919 -1.1481 0.9865
1.9363 2.5664 -1.1497 0.9864
1.8454 2.6380 -1.1513 0.9864
1.7519 2.7064 -1.1529 0.9864
1.6560 2.7716 -1.1546 0.9864
1.5577 2.8335 -1.1563 0.9864
1.3544 2.9470 -1.1598 0.9863
0.5852 3.2283 -1.1733 0.9862
0.4696 3.2528 -1.1753 0.9861
0.3531 3.2732 -1.1773 0.9861
0.2357 3.2895 -1.1794 0.9861
0.1176 3.3016 -1.1814 0.9861
-0.0010 3.3095 -1.1835 0.9860
-0.1201 3.3131 -1.1856 0.9860
-0.4783 3.2983 -1.1918 0.9859
-0.5975 3.2847 -1.1939 0.9859
-0.7164 3.2668 -1.1960 0.9859
-0.9523 3.2180 -1.2001 0.9858
-1.1849 3.1519 -1.2042 0.9858
-1.2995 3.1125 -1.2062 0.9858
-1.6346 2.9690 -1.2120 0.9857
-1.8492 2.8528 -1.2158 0.9857
-0.9678 1.2811 -0.5742 0.9932
-1.0066 1.1505 -0.5467 0.9935
2.7498 1.1038 -1.1355 0.9874
2.7100 1.2026 -1.1362 0.9874
2.0749 1.1054 -0.9009 0.9900
1.6252 1.1054 -0.7532 0.9916
1.4249 1.1268 -0.6962 0.9922
2.0586 2.1747 -1.1476 0.9873
1.9815 2.2499 -1.1489 0.9872
1.9017 2.3224 -1.1503 0.9872
1.7344 2.4592 -1.1532 0.9872
1.5576 2.5842 -1.1563 0.9872
1.3719 2.6969 -1.1595 0.9871
1.2759 2.7484 -1.1612 0.9871
0.8744 2.9203 -1.1682 0.9870
0.6646 2.9849 -1.1719 0.9870
0.4500 3.0346 -1.1756 0.9869
0.2318 3.0690 -1.1794 0.9869
0.1216 3.0803 -1.1814 0.9869
-0.1002 3.0912 -1.1852 0.9868
-0.5454 3.0650 -1.1930 0.9868
-0.6562 3.0483 -1.1949 0.9867
-0.7665 3.0277 -1.1969 0.9867
-1.1997 2.9049 -1.2044 0.9866
-1.3053 2.8643 -1.2063 0.9866
-1.4094 2.8199 -1.2081 0.9866
-1.5120 2.7715 -1.2099 0.9866
-0.9598 1.1892 -0.5856 0.9935
-0.9727 1.1203 -0.5685 0.9937
-1.0317 1.1054 -0.5794 0.9935
-1.1912 1.1054 -0.6228 0.9931
-1.2806 1.1054 -0.6483 0.9928
-1.3777 1.1054 -0.6769 0.9925
-1.6206 1.1191 -0.7547 0.9916
-2.7694 1.6318 -1.2318 0.9863
-2.8286 1.5326 -1.2329 0.9863
-3.0672 1.0060 -1.2370 0.9863
-3.1619 0.6711 -1.2387 0.9862
-3.2183 0.3273 -1.2397 0.9862
-3.2284 0.2116 -1.2398 0.9862
-3.2356 -0.0208 -1.2400 0.9862
-3.2326 -0.1369 -1.2399 0.9862
-3.2253 -0.2529 -1.2398 0.9862
-3.2136 -0.3686 -1.2396 0.9862
-1.3936 -0.3145 -0.5475 0.9939
-1.1859 -0.3588 -0.4748 0.9947
-1.1764 -0.4026 -0.4765 0.9947
-1.1542 -0.4901 -0.4805 0.9946
-2.8647 -1.4676 -1.2335 0.9863
-2.8079 -1.5683 -1.2325 0.9863
-2.6438 -1.7368 -1.2122 0.9865
-2.4612 -1.7465 -1.1565 0.9872
-2.2941 -1.7552 -1.1069 0.9877
-2.1005 -1.8607 -1.0753 0.9881
-1.9569 -2.0020 -1.0728 0.9881
-1.8814 -2.0684 -1.0715 0.9881
-1.7236 -2.1925 -1.0688 0.9881
-1.5576 -2.3043 -1.0659 0.9882
-1.4717 -2.3555 -1.0644 0.9882
-1.1092 -2.0967 -0.9090 0.9899
-1.1126 -2.5270 -1.0581 0.9882
-0.9255 -2.5923 -1.0548 0.9883
-0.8305 -2.6198 -1.0532 0.9883
-0.3462 -2.7041 -1.0447 0.9884
-0.2485 -2.7104 -1.0430 0.9884
-0.0531 -2.7123 -1.0396 0.9884
0.1822 -2.0606 -0.7927 0.9912
0.2583 -2.0700 -0.7994 0.9911
0.7088 -2.5826 -1.0263 0.9886
0.8896 -2.5173 -1.0232 0.9886
1.1501 -2.3963 -1.0186 0.9887
1.3154 -2.3011 -1.0157 0.9887
1.6075 -2.0584 -1.0009 0.9889
1.7635 -1.9513 -1.0079 0.9888
1.8303 -1.8845 -1.0067 0.9888
1.8947 -1.8155 -1.0056 0.9888
1.9727 -1.7588 -1.0128 0.9887
2.1122 -1.7512 -1.0515 0.9883
2.2627 -1.7427 -1.0945 0.9878
2.5366 -1.5501 -1.1392 0.9873
2.5886 -1.4568 -1.1383 0.9874
2.6373 -1.3618 -1.1374 0.9874
2.7246 -1.1674 -1.1359 0.9874
1.4709 -0.4502 -0.5895 0.9934
1.4740 -0.3939 -0.5847 0.9935
1.6419 -0.3145 -0.6407 0.9929
2.9444 -0.2404 -1.1321 0.9874
2.9536 -0.0284 -1.1319 0.9874
2.9528 0.0777 -1.1319 0.9874
2.9483 0.1837 -1.1320 0.9874
2.9401 0.2895 -1.1322 0.9874
2.9284 0.3950 -1.1324 0.9874
2.9130 0.5000 -1.1326 0.9874
2.8940 0.6045 -1.1330 0.9874
2.8714 0.7083 -1.1334 0.9874
2.8453 0.8113 -1.1338 0.9874
2.8156 0.9134 -1.1343 0.9874
2.7056 1.2130 -1.1363 0.9874
2.1835 1.0748 -0.9326 0.9896
2.0558 1.1054 -0.8945 0.9901
1.6119 1.1054 -0.7490 0.9917
1.4939 1.1054 -0.7122 0.9921
1.4172 1.3066 -0.7387 0.9918
2.1251 2.1054 -1.1464 0.9873
2.0505 2.1829 -1.1477 0.9873
1.9731 2.2578 -1.1490 0.9872
1.7252 2.4662 -1.1534 0.9872
1.4558 2.6482 -1.1581 0.9871
1.3617 2.7026 -1.1597 0.9871
1.0678 2.8459 -1.1648 0.9871
0.9663 2.8868 -1.1666 0.9870
0.8634 2.9242 -1.1684 0.9870
0.6533 2.9879 -1.1721 0.9870
0.5464 3.0143 -1.1739 0.9870
0.2200 3.0704 -1.1796 0.9869
0.1098 3.0813 -1.1816 0.9869
-0.0010 3.0883 -1.1835 0.9869
-0.1121 3.0913 -1.1854 0.9868
-0.2234 3.0904 -1.1874 0.9868
-0.3348 3.0854 -1.1893 0.9868
-0.4461 3.0764 -1.1913 0.9868
-0.7782 3.0252 -1.1971 0.9867
-0.8878 3.0001 -1.1990 0.9867
-1.2111 2.9008 -1.2046 0.9866
-1.3165 2.8598 -1.2065 0.9866
-1.4205 2.8149 -1.2083 0.9866
-1.5229 2.7661 -1.2101 0.9866
-1.6236 2.7136 -1.2118 0.9865
-0.9335 1.3327 -0.6235 0.9931
-0.9480 1.2549 -0.6027 0.9933
-1.0396 1.1054 -0.5815 0.9935
-1.1171 1.1054 -0.6023 0.9933
-1.2906 1.1054 -0.6512 0.9927
2.6156 0.9423 -1.1378 0.9881
2.5439 1.1289 -1.1391 0.9880
2.5033 1.2203 -1.1398 0.9880
1.4171 1.1206 -0.7394 0.9922
1.4094 1.2894 -0.7818 0.9918
1.8588 2.1106 -1.1510 0.9879
1.7838 2.1784 -1.1523 0.9879
1.7064 2.2437 -1.1537 0.9879
1.6267 2.3064 -1.1551 0.9879
1.3743 2.4774 -1.1595 0.9878
1.1043 2.6214 -1.1642 0.9878
1.0109 2.6631 -1.1658 0.9878
0.7217 2.7684 -1.1709 0.9877
0.5226 2.8214 -1.1744 0.9877
0.4216 2.8426 -1.1761 0.9877
0.3197 2.8602 -1.1779 0.9876
0.1139 2.8846 -1.1815 0.9876
-0.1980 2.8933 -1.1869 0.9875
-0.4064 2.8805 -1.1906 0.9875
-0.8197 2.8095 -1.1978 0.9874
-0.9214 2.7823 -1.1996 0.9874
-1.0223 2.7515 -1.2013 0.9874
-1.1221 2.7169 -1.2031 0.9874
-1.2207 2.6787 -1.2048 0.9874
-1.5080 2.5424 -1.2098 0.9873
-0.9122 1.3129 -0.6543 0.9931
-0.9272 1.2371 -0.6327 0.9933
-0.9408 1.1656 -0.6131 0.9935
-1.0317 1.1054 -0.6188 0.9935
-1.1086 1.1054 -0.6407 0.9933
-1.3777 1.1054 -0.7229 0.9924
-1.6285 1.1245 -0.8100 0.9915
-2.6415 1.4312 -1.2296 0.9871
-2.6932 1.3364 -1.2305 0.9871
-2.7413 1.2397 -1.2313 0.9871
-2.7858 1.1411 -1.2321 0.9871
-2.8266 1.0409 -1.2328 0.9871
-2.8637 0.9392 -1.2335 0.9871
-2.8969 0.8362 -1.2340 0.9871
-2.9263 0.7319 -1.2346 0.9870
-2.9518 0.6265 -1.2350 0.9870
-2.9908 0.4132 -1.2357 0.9870
-3.0043 0.3056 -1.2359 0.9870
-3.0137 0.1975 -1.2361 0.9870
-3.0191 0.0891 -1.2362 0.9870
-3.0108 -0.2361 -1.2360 0.9870
-1.6085 -0.3027 -0.6699 0.9930
-1.1328 -0.3428 -0.4844 0.9949
-1.1236 -0.3845 -0.4860 0.9949
-1.1133 -0.4263 -0.4879 0.9949
-1.1019 -0.4680 -0.4900 0.9948
-1.0826 -0.5546 -0.4978 0.9948
-2.5061 -1.6464 -1.2272 0.9871
-2.2778 -1.7427 -1.1738 0.9877
-1.8966 -1.8057 -1.0718 0.9887
-1.8285 -1.8706 -1.0706 0.9888
-1.6855 -1.9924 -1.0681 0.9888
-1.5344 -2.1031 -1.0655 0.9888
-1.1264 -2.3277 -1.0583 0.9889
-1.0406 -2.3633 -1.0568 0.9889
-0.9536 -2.3957 -1.0553 0.9889
-0.8657 -2.4249 -1.0538 0.9889
-0.7769 -2.4508 -1.0522 0.9889
-0.6873 -2.4734 -1.0507 0.9890
-0.5065 -2.5088 -1.0475 0.9890
-0.4154 -2.5216 -1.0459 0.9890
-0.3241 -2.5310 -1.0443 0.9890
-0.1411 -2.5400 -1.0411 0.9891
0.1108 -2.1180 -0.8680 0.9909
0.4901 -2.4688 -1.0301 0.9892
0.6641 -2.4201 -1.0271 0.9892
0.8338 -2.3593 -1.0241 0.9892
1.3084 -2.1092 -1.0158 0.9893
1.3816 -2.0582 -1.0146 0.9893
1.4528 -2.0048 -1.0133 0.9894
1.5221 -1.9490 -1.0121 0.9894
1.7171 -1.7680 -1.0087 0.9894
1.8311 -1.7546 -1.0379 0.9891
1.9599 -1.7474 -1.0746 0.9887
2.2739 -1.6246 -1.1438 0.9880
2.3289 -1.5406 -1.1428 0.9880
2.3808 -1.4548 -1.1419 0.9880
2.5182 -1.1878 -1.1395 0.9880
1.4429 -0.5578 -0.6331 0.9933
1.4470 -0.5004 -0.6266 0.9934
1.4539 -0.3885 -0.6159 0.9935
1.6419 -0.3145 -0.6842 0.9928
2.0351 -0.3145 -0.8428 0.9911
2.1833 -0.2575 -0.8998 0.9905
2.7706 -0.1263 -1.1351 0.9881
2.7733 -0.0267 -1.1351 0.9881
2.7725 0.0729 -1.1351 0.9881
2.7682 0.1725 -1.1352 0.9881
2.7606 0.2718 -1.1353 0.9881
2.7495 0.3709 -1.1355 0.9881
2.7350 0.4695 -1.1357 0.9881
2.7171 0.5676 -1.1361 0.9881
2.6959 0.6650 -1.1364 0.9881
2.6121 0.9524 -1.1379 0.9881
2.4988 1.2300 -1.1399 0.9880
1.6119 1.1054 -0.7999 0.9916
1.4939 1.1054 -0.7606 0.9920
1.4167 1.1292 -0.7415 0.9922
1.4089 1.2990 -0.7843 0.9918
1.9236 2.0478 -1.1499 0.9879
1.8509 2.1179 -1.1512 0.9879
1.7756 2.1856 -1.1525 0.9879
1.5358 2.3725 -1.1567 0.9879
1.3650 2.4830 -1.1597 0.9878
1.0944 2.6260 -1.1644 0.9878
0.7111 2.7715 -1.1711 0.9877
0.6120 2.7994 -1.1728 0.9877
0.3087 2.8619 -1.1781 0.9876
0.2061 2.8755 -1.1799 0.9876
0.1028 2.8854 -1.1817 0.9876
-0.0009 2.8917 -1.1835 0.9876
-0.1049 2.8942 -1.1853 0.9876
-0.2091 2.8930 -1.1871 0.9875
-0.3134 2.8881 -1.1890 0.9875
-0.8306 2.8068 -1.1980 0.9874
-0.9323 2.7792 -1.1998 0.9874
-1.5180 2.5369 -1.2100 0.9873
-1.6102 2.4841 -1.2116 0.9873
-0.9139 1.3046 -0.6519 0.9931
-0.9422 1.1582 -0.6111 0.9936
-1.0396 1.1054 -0.6211 0.9935
-1.1171 1.1054 -0.6432 0.9932
-1.2906 1.1054 -0.6955 0.9927
2.3945 1.0625 -1.1417 0.9886
2.3562 1.1485 -1.1424 0.9886
2.3148 1.2332 -1.1431 0.9886
1.9066 1.1054 -0.9605 0.9904
1.7578 1.1054 -0.9050 0.9910
1.6252 1.1054 -0.8566 0.9915
1.4092 1.1144 -0.7830 0.9922
1.4187 1.2980 -0.8380 0.9916
1.8168 1.9193 -1.1518 0.9885
1.7485 1.9853 -1.1530 0.9885
1.6049 2.1103 -1.1555 0.9885
1.5298 2.1691 -1.1568 0.9885
1.4526 2.2252 -1.1581 0.9885
1.0381 2.4642 -1.1654 0.9884
0.9502 2.5032 -1.1669 0.9884
0.8608 2.5391 -1.1685 0.9884
0.7701 2.5719 -1.1700 0.9884
0.6782 2.6015 -1.1716 0.9883
0.3003 2.6868 -1.1782 0.9883
-0.0881 2.7176 -1.1850 0.9882
-0.1859 2.7166 -1.1867 0.9882
-0.3815 2.7040 -1.1901 0.9882
-0.4791 2.6924 -1.1918 0.9881
-0.5763 2.6773 -1.1935 0.9881
-0.6731 2.6586 -1.1952 0.9881
-0.7692 2.6364 -1.1969 0.9881
-1.0527 2.5489 -1.2019 0.9880
-1.1451 2.5128 -1.2035 0.9880
-1.2362 2.4733 -1.2051 0.9880
-1.3260 2.4305 -1.2066 0.9880
-1.4142 2.3843 -1.2082 0.9880
-1.5008 2.3349 -1.2097 0.9880
-0.8930 1.2852 -0.6820 0.9932
-0.9082 1.2119 -0.6600 0.9934
-0.9222 1.1426 -0.6399 0.9936
-1.0317 1.1054 -0.6590 0.9934
-1.2806 1.1054 -0.7373 0.9926
-1.3777 1.1054 -0.7698 0.9923
-1.4839 1.1054 -0.8064 0.9920
-1.6335 1.0433 -0.8447 0.9916
-2.4747 1.3409 -1.2267 0.9878
-2.5680 1.1613 -1.2283 0.9878
-2.6096 1.0689 -1.2290 0.9878
-2.6478 0.9751 -1.2297 0.9878
-2.7135 0.7832 -1.2308 0.9878
-2.7848 0.4873 -1.2321 0.9877
-2.8011 0.3870 -1.2324 0.9877
-2.8137 0.2862 -1.2326 0.9877
-2.8225 0.1850 -1.2328 0.9877
-2.8288 -0.0181 -1.2329 0.9877
-2.7957 -0.4229 -1.2323 0.9877
-1.3936 -0.3145 -0.6226 0.9938
-1.0870 -0.3289 -0.4950 0.9951
-1.0818 -0.3702 -0.4983 0.9950
-1.0541 -0.5400 -0.5162 0.9948
-2.4567 -1.3722 -1.2264 0.9878
-2.4040 -1.4584 -1.2254 0.9878
-2.2276 -1.7043 -1.2224 0.9878
-1.9716 -1.7465 -1.1479 0.9886
-1.7220 -1.7617 -1.0736 0.9893
-1.6481 -1.8119 -1.0674 0.9894
-1.4387 -1.9719 -1.0638 0.9894
-1.1829 -2.0540 -1.0330 0.9897
-1.0565 -2.1834 -1.0571 0.9895
-0.5605 -2.3395 -1.0485 0.9896
-0.4754 -2.3548 -1.0470 0.9896
-0.2184 -2.3821 -1.0425 0.9896
-0.0467 -2.3847 -1.0395 0.9896
0.0390 -2.3814 -1.0380 0.9897
0.1823 -2.0614 -0.9019 0.9910
0.2582 -2.0691 -0.9088 0.9909
0.3774 -2.3379 -1.0321 0.9897
0.5428 -2.2983 -1.0292 0.9897
0.7044 -2.2473 -1.0264 0.9898
0.9383 -2.1499 -1.0223 0.9898
1.0136 -2.1120 -1.0210 0.9898
1.0875 -2.0717 -1.0197 0.9898
1.2304 -1.9834 -1.0172 0.9899
1.3664 -1.8855 -1.0148 0.9899
1.4949 -1.7786 -1.0126 0.9899
1.8195 -1.7435 -1.0982 0.9891
2.0280 -1.6814 -1.1481 0.9886
2.0853 -1.6060 -1.1471 0.9886
2.1916 -1.4498 -1.1452 0.9886
2.2406 -1.3692 -1.1444 0.9886
2.2867 -1.2869 -1.1436 0.9886
2.3299 -1.2031 -1.1428 0.9886
2.4074 -1.0315 -1.1415 0.9886
1.4299 -0.5528 -0.6681 0.9933
1.4340 -0.3832 -0.6469 0.9935
1.4369 -0.3291 -0.6424 0.9936
2.0351 -0.3145 -0.8975 0.9911
2.6027 -0.2125 -1.1381 0.9887
2.6084 -0.1189 -1.1380 0.9887
2.6109 -0.0251 -1.1379 0.9887
2.6061 0.1624 -1.1380 0.9887
2.5748 0.4420 -1.1385 0.9887
2.5579 0.5343 -1.1388 0.9887
2.5146 0.7170 -1.1396 0.9887
2.4882 0.8072 -1.1401 0.9887
2.4262 0.9847 -1.1411 0.9886
2.3519 1.1577 -1.1424 0.9886
2.0559 1.1054 -1.0173 0.9899
1.7430 1.1054 -0.8995 0.9910
1.6119 1.1054 -0.8518 0.9915
1.4088 1.1229 -0.7852 0.9922
1.4129 1.2117 -0.8112 0.9919
1.8757 1.8583 -1.1507 0.9885
1.7410 1.9923 -1.1531 0.9885
1.5217 2.1752 -1.1569 0.9885
1.2834 2.3346 -1.1611 0.9884
1.1154 2.4268 -1.1640 0.9884
1.0288 2.4685 -1.1655 0.9884
0.9407 2.5072 -1.1671 0.9884
0.8512 2.5428 -1.1686 0.9884
0.4809 2.6531 -1.1751 0.9883
0.2900 2.6883 -1.1784 0.9883
-0.0985 2.7177 -1.1852 0.9882
-0.1964 2.7163 -1.1869 0.9882
-0.4895 2.6910 -1.1920 0.9881
-0.5867 2.6755 -1.1937 0.9881
-0.6834 2.6564 -1.1954 0.9881
-0.7794 2.6339 -1.1971 0.9881
-0.9692 2.5782 -1.2004 0.9881
-1.0626 2.5452 -1.2020 0.9880
-1.2459 2.4689 -1.2052 0.9880
-1.4236 2.3792 -1.2083 0.9880
-1.5100 2.3294 -1.2098 0.9880
-0.8947 1.2772 -0.6796 0.9932
-0.9098 1.2043 -0.6578 0.9934
-0.9672 1.1054 -0.6401 0.9936
-1.0396 1.1054 -0.6613 0.9934
-1.1171 1.1054 -0.6849 0.9932
-1.2906 1.1054 -0.7406 0.9926
2.2925 0.9202 -1.1435 0.9892
2.2591 1.0025 -1.1440 0.9892
2.1838 1.1634 -1.1454 0.9892
1.4185 1.1218 -0.8371 0.9921
1.7755 1.7455 -1.1525 0.9891
1.7132 1.8099 -1.1536 0.9891
1.6487 1.8721 -1.1547 0.9891
1.1397 2.2406 -1.1636 0.9890
1.0598 2.2828 -1.1650 0.9890
0.8954 2.3588 -1.1679 0.9889
0.7256 2.4231 -1.1708 0.9889
0.5512 2.4754 -1.1739 0.9889
0.1920 2.5423 -1.1801 0.9888
0.1007 2.5510 -1.1817 0.9888
-0.0829 2.5585 -1.1849 0.9888
-0.2671 2.5529 -1.1881 0.9887
-0.4509 2.5340 -1.1914 0.9887
-0.8134 2.4562 -1.1977 0.9887
-0.9023 2.4286 -1.1992 0.9886
-1.1627 2.3262 -1.2038 0.9886
-1.2470 2.2857 -1.2052 0.9886
-1.3299 2.2422 -1.2067 0.9886
-0.8828 1.2706 -0.7161 0.9932
-0.9039 1.1200 -0.6662 0.9937
-0.9597 1.1054 -0.6776 0.9936
-1.1086 1.1054 -0.7246 0.9931
-1.1912 1.1054 -0.7522 0.9929
-1.2806 1.1054 -0.7830 0.9926
-1.6450 1.1359 -0.9254 0.9912
-1.6417 1.0486 -0.9017 0.9915
-2.3251 1.2598 -1.2241 0.9884
-2.3703 1.1762 -1.2249 0.9884
-2.4125 1.0910 -1.2256 0.9884
-2.4515 1.0042 -1.2263 0.9884
-2.4873 0.9159 -1.2269 0.9884
-2.5197 0.8264 -1.2275 0.9884
-2.6157 0.4577 -1.2291 0.9884
-2.6428 0.2688 -1.2296 0.9884
-2.6569 -0.0170 -1.2299 0.9884
-2.6545 -0.1125 -1.2298 0.9884
-2.6485 -0.2077 -1.2297 0.9884
-2.6390 -0.3027 -1.2295 0.9884
-1.1924 -0.3145 -0.5708 0.9946
-1.0598 -0.3207 -0.5125 0.9951
-1.0545 -0.3609 -0.5159 0.9951
-2.2588 -1.3703 -1.2229 0.9884
-2.0933 -1.6015 -1.2200 0.9884
-2.0327 -1.6742 -1.2190 0.9885
-1.9584 -1.7348 -1.2110 0.9885
-1.8298 -1.7421 -1.1694 0.9889
-0.8416 -2.1143 -1.0534 0.9900
-0.7641 -2.1404 -1.0520 0.9900
-0.5274 -2.2015 -1.0479 0.9901
-0.4474 -2.2161 -1.0465 0.9901
-0.2864 -2.2365 -1.0437 0.9901
-0.1247 -2.2452 -1.0409 0.9901
0.1111 -2.1222 -0.9837 0.9907
0.1823 -2.0618 -0.9581 0.9909
0.3555 -2.2020 -1.0325 0.9902
0.4338 -2.1849 -1.0311 0.9902
0.5113 -2.1651 -1.0298 0.9902
0.7384 -2.0895 -1.0258 0.9903
1.0957 -1.9166 -1.0219 0.9903
1.1598 -1.8697 -1.0184 0.9903
1.2882 -1.7777 -1.0162 0.9904
1.3723 -1.7572 -1.0320 0.9902
1.4724 -1.7518 -1.0593 0.9900
1.5778 -1.7459 -1.0893 0.9897
1.6894 -1.7394 -1.1224 0.9894
1.8561 -1.6549 -1.1511 0.9891
1.9127 -1.5858 -1.1501 0.9891
1.9669 -1.5148 -1.1492 0.9891
2.0184 -1.4421 -1.1483 0.9891
2.1981 -1.1351 -1.1451 0.9892
2.0351 -0.3145 -0.9532 0.9910
2.4614 -0.1122 -1.1405 0.9892
2.4593 0.1532 -1.1406 0.9892
2.4524 0.2415 -1.1407 0.9892
2.4425 0.3295 -1.1408 0.9892
2.3947 0.5907 -1.1417 0.9892
2.3478 0.7617 -1.1425 0.9892
2.2891 0.9291 -1.1435 0.9892
2.2554 1.0112 -1.1441 0.9892
2.2189 1.0922 -1.1448 0.9892
1.8898 1.1054 -1.0134 0.9904
1.7430 1.1054 -0.9554 0.9909
1.6119 1.1054 -0.9047 0.9914
1.4939 1.1054 -0.8602 0.9918
1.4255 1.2225 -0.8693 0.9918
1.7689 1.7525 -1.1526 0.9891
1.6417 1.8786 -1.1548 0.9891
1.5747 1.9383 -1.1560 0.9891
1.5057 1.9957 -1.1572 0.9890
1.4346 2.0507 -1.1584 0.9890
1.2865 2.1532 -1.1610 0.9890
1.2097 2.2005 -1.1624 0.9890
1.1312 2.2452 -1.1637 0.9890
1.0511 2.2871 -1.1651 0.9890
0.9695 2.3263 -1.1666 0.9890
0.8864 2.3625 -1.1680 0.9889
0.8020 2.3958 -1.1695 0.9889
0.7163 2.4262 -1.1710 0.9889
0.6296 2.4535 -1.1725 0.9889
0.5417 2.4778 -1.1740 0.9889
0.4530 2.4990 -1.1756 0.9889
0.3634 2.5170 -1.1771 0.9889
0.2731 2.5318 -1.1787 0.9888
0.1823 2.5434 -1.1803 0.9888
0.0909 2.5517 -1.1819 0.9888
-0.0928 2.5586 -1.1851 0.9888
-0.1848 2.5570 -1.1867 0.9888
-0.3689 2.5441 -1.1899 0.9887
-0.5521 2.5178 -1.1931 0.9887
-0.6430 2.4996 -1.1947 0.9887
-0.7334 2.4782 -1.1963 0.9887
-0.9996 2.3942 -1.2009 0.9886
-1.0863 2.3597 -1.2024 0.9886
-1.1718 2.3220 -1.2039 0.9886
-1.2560 2.2812 -1.2054 0.9886
-1.4198 2.1904 -1.2083 0.9886
-0.8835 1.2612 -0.7128 0.9932
-0.8913 1.1798 -0.6844 0.9935
-0.9054 1.1130 -0.6641 0.9937
-1.2906 1.1054 -0.7866 0.9925
2.1964 0.7913 -1.1451 0.9897
2.1675 0.8700 -1.1456 0.9896
2.1358 0.9478 -1.1462 0.9896
2.1015 1.0244 -1.1468 0.9896
1.9066 1.1054 -1.0810 0.9902
1.7578 1.1054 -1.0186 0.9908
1.6252 1.1054 -0.9641 0.9913
1.4311 1.1317 -0.8950 0.9919
1.4731 1.3477 -0.9793 0.9911
1.4948 1.8256 -1.1574 0.9895
1.4297 1.8799 -1.1585 0.9895
1.2230 2.0291 -1.1621 0.9895
1.1506 2.0740 -1.1634 0.9895
0.9239 2.1932 -1.1674 0.9895
0.8455 2.2275 -1.1687 0.9894
0.6851 2.2879 -1.1715 0.9894
0.5203 2.3369 -1.1744 0.9894
0.4366 2.3571 -1.1759 0.9894
0.3521 2.3742 -1.1773 0.9894
0.0950 2.4074 -1.1818 0.9893
0.0085 2.4124 -1.1833 0.9893
-0.0782 2.4142 -1.1848 0.9893
-0.2520 2.4085 -1.1879 0.9893
-0.6826 2.3394 -1.1954 0.9892
-0.7671 2.3163 -1.1969 0.9892
-0.8508 2.2900 -1.1983 0.9892
-1.0961 2.1930 -1.2026 0.9891
-1.1755 2.1547 -1.2040 0.9891
-0.8749 1.2593 -0.7522 0.9932
-0.8817 1.1765 -0.7211 0.9935
-1.1086 1.1054 -0.7679 0.9930
-1.4839 1.1054 -0.9076 0.9918
-1.6501 1.0539 -0.9604 0.9913
-2.1444 1.2636 -1.2209 0.9890
-2.1898 1.1865 -1.2217 0.9890
-2.2720 1.0274 -1.2231 0.9890
-2.3728 0.7782 -1.2249 0.9889
-2.4452 0.5190 -1.2262 0.9889
-2.4773 0.3423 -1.2267 0.9889
-2.4884 0.2531 -1.2269 0.9889
-2.5017 -0.0160 -1.2271 0.9889
-2.4994 -0.1059 -1.2271 0.9889
-2.4848 -0.2850 -1.2269 0.9889
-2.4726 -0.3740 -1.2266 0.9889
-1.0395 -0.3145 -0.5327 0.9952
-1.0220 -0.3913 -0.5368 0.9951
-1.0153 -0.4312 -0.5411 0.9951
-1.0079 -0.4715 -0.5458 0.9951
-2.0264 -1.4380 -1.2189 0.9890
-1.9149 -1.5772 -1.2169 0.9890
-1.8554 -1.6436 -1.2159 0.9890
-1.5861 -1.7437 -1.1562 0.9896
-1.4799 -1.7494 -1.1240 0.9898
-1.3793 -1.7545 -1.0947 0.9901
-1.2836 -1.7594 -1.0683 0.9903
-1.2099 -1.7900 -1.0598 0.9904
-1.0759 -1.8681 -1.0575 0.9904
-1.0070 -1.9034 -1.0563 0.9905
-0.8657 -1.9662 -1.0538 0.9905
-0.7936 -1.9936 -1.0525 0.9905
-0.6468 -2.0404 -1.0500 0.9905
-0.5724 -2.0598 -1.0487 0.9905
-0.4974 -2.0764 -1.0474 0.9905
-0.1939 -2.1155 -1.0421 0.9906
0.0346 -2.1160 -1.0381 0.9906
0.1104 -2.1107 -1.0368 0.9906
0.3356 -2.0786 -1.0328 0.9907
0.4827 -2.0441 -1.0303 0.9907
0.6267 -1.9993 -1.0277 0.9907
0.6973 -1.9731 -1.0265 0.9907
0.7668 -1.9445 -1.0253 0.9907
1.0327 -1.8064 -1.0207 0.9908
1.3643 -1.7470 -1.0873 0.9902
1.6403 -1.6889 -1.1549 0.9896
1.7543 -1.5641 -1.1529 0.9896
1.8078 -1.4988 -1.1519 0.9896
1.9079 -1.3631 -1.1502 0.9896
2.1475 -0.9201 -1.1460 0.9896
1.4161 -0.5474 -0.7447 0.9933
1.4191 -0.4344 -0.7280 0.9934
1.4204 -0.3795 -0.7212 0.9935
1.4214 -0.3256 -0.7153 0.9935
2.0351 -0.3145 -1.0101 0.9909
2.3143 -0.2730 -1.1431 0.9897
2.3275 -0.1061 -1.1429 0.9897
2.3254 0.1449 -1.1429 0.9897
2.2642 0.5585 -1.1440 0.9897
2.1934 0.7997 -1.1452 0.9897
2.0977 1.0325 -1.1469 0.9896
1.8898 1.1054 -1.0739 0.9903
1.6119 1.1054 -0.9587 0.9913
1.4939 1.1054 -0.9116 0.9918
1.4318 1.1412 -0.8981 0.9919
1.4386 1.2338 -0.9296 0.9916
1.7286 1.5937 -1.1533 0.9896
1.6717 1.6562 -1.1543 0.9896
1.4880 1.8315 -1.1575 0.9895
1.4226 1.8856 -1.1587 0.9895
1.2862 1.9869 -1.1610 0.9895
1.2153 2.0340 -1.1623 0.9895
1.1427 2.0786 -1.1635 0.9895
0.9928 2.1602 -1.1662 0.9895
0.8371 2.2310 -1.1689 0.9894
0.6764 2.2909 -1.1717 0.9894
0.5944 2.3165 -1.1731 0.9894
0.5114 2.3392 -1.1746 0.9894
0.2578 2.3897 -1.1790 0.9893
0.1720 2.4004 -1.1805 0.9893
-0.1744 2.4126 -1.1865 0.9893
-0.3480 2.4000 -1.1896 0.9893
-0.4346 2.3890 -1.1911 0.9892
-0.5208 2.3748 -1.1926 0.9892
-0.6916 2.3371 -1.1956 0.9892
-0.9424 2.2574 -1.1999 0.9892
-1.1840 2.1504 -1.2041 0.9891
-0.8823 1.1680 -0.7180 0.9935
-1.1171 1.1054 -0.7709 0.9930
-1.2906 1.1054 -0.8335 0.9925
2.0804 0.7495 -1.1472 0.9901
2.0230 0.8977 -1.1482 0.9901
1.9553 1.0417 -1.1494 0.9901
1.7578 1.1054 -1.0773 0.9907
1.4666 1.1598 -0.9700 0.9916
1.6424 1.5026 -1.1548 0.9900
1.5886 1.5619 -1.1558 0.9900
1.5328 1.6193 -1.1567 0.9900
1.2898 1.8288 -1.1610 0.9900
0.8743 2.0752 -1.1682 0.9899
0.8000 2.1076 -1.1695 0.9899
0.7246 2.1374 -1.1708 0.9899
0.6481 2.1645 -1.1722 0.9899
0.1714 2.2691 -1.1805 0.9898
0.0899 2.2765 -1.1819 0.9898
0.0080 2.2810 -1.1833 0.9898
-0.2382 2.2769 -1.1876 0.9897
-0.3202 2.2696 -1.1891 0.9897
-0.4020 2.2593 -1.1905 0.9897
-0.5645 2.2299 -1.1933 0.9897
-1.1841 1.9964 -1.2042 0.9896
-0.8593 1.3368 -0.8244 0.9929
-0.8922 1.1054 -0.7369 0.9936
-1.0317 1.1054 -0.7844 0.9932
-1.1912 1.1054 -0.8431 0.9927
-1.2806 1.1054 -0.8776 0.9924
-1.3777 1.1054 -0.9163 0.9921
-1.4839 1.1054 -0.9599 0.9917
-1.9307 1.3332 -1.2172 0.9895
-2.0241 1.1927 -1.2188 0.9895
-2.0669 1.1199 -1.2196 0.9895
-2.1070 1.0456 -1.2203 0.9895
-2.1444 0.9697 -1.2209 0.9895
-2.1789 0.8925 -1.2215 0.9894
-2.2393 0.7344 -1.2226 0.9894
-2.2650 0.6538 -1.2230 0.9894
-2.2878 0.5722 -1.2234 0.9894
-2.3075 0.4898 -1.2238 0.9894
-2.3242 0.4067 -1.2241 0.9894
-2.3482 0.2388 -1.2245 0.9894
-2.3596 0.0697 -1.2247 0.9894
-2.3607 -0.0151 -1.2247 0.9894
-2.3532 -0.1846 -1.2246 0.9894
-2.3448 -0.2689 -1.2244 0.9894
-2.3332 -0.3529 -1.2242 0.9894
-1.3936 -0.3145 -0.7411 0.9936
-1.1924 -0.3145 -0.6397 0.9945
-0.9962 -0.3814 -0.5534 0.9952
-0.9895 -0.4202 -0.5577 0.9952
-0.9673 -0.5403 -0.5748 0.9950
-2.0082 -1.2183 -1.2185 0.9895
-1.9618 -1.2888 -1.2177 0.9895
-1.8616 -1.4242 -1.2160 0.9895
-1.8078 -1.4890 -1.2150 0.9895
-1.6330 -1.6707 -1.2120 0.9895
-1.5706 -1.7267 -1.2109 0.9895
-1.4709 -1.7387 -1.1815 0.9898
-1.3711 -1.7440 -1.1509 0.9901
-1.2760 -1.7489 -1.1231 0.9903
-1.1851 -1.7533 -1.0978 0.9905
-1.0979 -1.7572 -1.0749 0.9907
-0.9512 -1.7981 -1.0553 0.9909
-0.8851 -1.8291 -1.0541 0.9909
-0.8179 -1.8576 -1.0530 0.9909
-0.7498 -1.8836 -1.0518 0.9909
-0.5409 -1.9466 -1.0481 0.9909
-0.4701 -1.9625 -1.0469 0.9909
-0.3989 -1.9757 -1.0456 0.9910
-0.2554 -1.9945 -1.0431 0.9910
-0.1833 -1.9999 -1.0419 0.9910
-0.1113 -2.0028 -1.0406 0.9910
-0.0392 -2.0031 -1.0394 0.9910
0.1044 -1.9959 -1.0369 0.9910
0.1759 -1.9885 -1.0356 0.9910
0.4566 -1.9336 -1.0307 0.9911
0.5261 -1.9171 -1.0313 0.9911
0.9233 -1.7589 -1.0306 0.9911
1.0034 -1.7552 -1.0489 0.9909
1.4958 -1.6552 -1.1574 0.9900
1.5530 -1.5990 -1.1564 0.9900
1.6081 -1.5409 -1.1554 0.9900
1.6611 -1.4810 -1.1545 0.9900
1.8923 -1.1563 -1.1505 0.9901
1.9315 -1.0870 -1.1498 0.9901
1.9682 -1.0163 -1.1491 0.9901
2.0340 -0.8715 -1.1480 0.9901
1.4090 -0.5447 -0.7837 0.9932
1.4107 -0.4879 -0.7744 0.9933
1.4146 -0.3240 -0.7529 0.9935
1.6419 -0.3145 -0.8673 0.9925
2.1820 -0.3372 -1.1454 0.9901
2.1999 -0.1796 -1.1451 0.9901
2.2069 -0.0212 -1.1450 0.9901
2.2063 0.0580 -1.1450 0.9901
2.2029 0.1372 -1.1450 0.9901
2.1879 0.2951 -1.1453 0.9901
2.1762 0.3736 -1.1455 0.9901
2.1619 0.4516 -1.1457 0.9901
2.1251 0.6060 -1.1464 0.9901
2.0776 0.7575 -1.1472 0.9901
2.0196 0.9055 -1.1482 0.9901
1.9514 1.0492 -1.1494 0.9901
1.9136 1.1193 -1.1501 0.9901
1.4939 1.1054 -0.9641 0.9917
1.5092 1.2943 -1.0314 0.9911
1.5828 1.5681 -1.1559 0.9900
1.4686 1.6806 -1.1578 0.9900
1.4086 1.7338 -1.1589 0.9900
1.0815 1.9672 -1.1646 0.9899
1.0112 2.0069 -1.1658 0.9899
0.9395 2.0441 -1.1671 0.9899
0.7920 2.1109 -1.1697 0.9899
0.7165 2.1404 -1.1710 0.9899
0.6399 2.1673 -1.1723 0.9899
0.4838 2.2127 -1.1750 0.9898
0.4045 2.2313 -1.1764 0.9898
0.2438 2.2600 -1.1792 0.9898
0.1627 2.2700 -1.1806 0.9898
-0.0007 2.2813 -1.1835 0.9898
-0.1649 2.2809 -1.1864 0.9897
-0.3290 2.2686 -1.1892 0.9897
-0.6536 2.2086 -1.1949 0.9897
-0.7334 2.1862 -1.1963 0.9897
-0.8123 2.1610 -1.1977 0.9897
-0.9676 2.1018 -1.2004 0.9896
-1.0436 2.0680 -1.2017 0.9896
-1.1184 2.0314 -1.2030 0.9896
-1.1919 1.9920 -1.2043 0.9896
-0.8601 1.3269 -0.8203 0.9929
-0.8748 1.1580 -0.7529 0.9935
-0.8992 1.1054 -0.7392 0.9936
-0.9672 1.1054 -0.7620 0.9934
-1.1171 1.1054 -0.8153 0.9929
-1.2005 1.1054 -0.8466 0.9927
1.9737 0.7111 -1.1490 0.9905
1.9192 0.8516 -1.1500 0.9905
1.8549 0.9882 -1.1511 0.9905
1.7578 1.1054 -1.1373 0.9906
1.6252 1.1054 -1.0765 0.9911
1.5059 1.1054 -1.0231 0.9915
1.6535 1.3077 -1.1546 0.9904
1.6066 1.3672 -1.1554 0.9904
1.5066 1.4812 -1.1572 0.9904
1.3419 1.6388 -1.1601 0.9904
1.2833 1.6874 -1.1611 0.9904
1.2229 1.7340 -1.1621 0.9904
0.9657 1.8985 -1.1666 0.9903
0.8978 1.9339 -1.1678 0.9903
0.6868 2.0257 -1.1715 0.9903
0.5407 2.0743 -1.1740 0.9903
0.3155 2.1275 -1.1780 0.9902
0.1623 2.1495 -1.1806 0.9902
0.0076 2.1606 -1.1833 0.9902
-0.3807 2.1393 -1.1901 0.9901
-0.4578 2.1267 -1.1915 0.9901
-0.5345 2.1112 -1.1928 0.9901
-0.7610 2.0483 -1.1968 0.9901
-0.9080 1.9926 -1.1993 0.9901
-0.9800 1.9608 -1.2006 0.9901
-1.0509 1.9263 -1.2018 0.9900
-1.1206 1.8892 -1.2030 0.9900
-0.8674 1.3494 -0.8786 0.9927
-0.8592 1.2366 -0.8247 0.9932
-0.8664 1.1561 -0.7913 0.9934
-0.8922 1.1054 -0.7780 0.9935
-1.2806 1.1054 -0.9265 0.9923
-1.4839 1.1054 -1.0134 0.9916
-1.8260 1.2609 -1.2154 0.9899
-1.9546 1.0591 -1.2176 0.9899
-1.9925 0.9887 -1.2183 0.9899
-2.0277 0.9170 -1.2189 0.9899
-2.0603 0.8439 -1.2194 0.9899
-2.1975 0.3845 -1.2218 0.9899
-2.2103 0.3054 -1.2221 0.9899
-2.2201 0.2258 -1.2222 0.9899
-2.2309 0.0659 -1.2224 0.9899
-2.2319 -0.0143 -1.2224 0.9899
-2.2299 -0.0945 -1.2224 0.9899
-2.2249 -0.1745 -1.2223 0.9899
-2.2169 -0.2543 -1.2222 0.9899
-1.6437 -0.3094 -0.9161 0.9924
-1.3936 -0.3145 -0.7825 0.9935
-0.9711 -0.3718 -0.5695 0.9953
-0.9669 -0.4106 -0.5754 0.9952
-0.9624 -0.4502 -0.5819 0.9952
-0.9574 -0.4905 -0.5892 0.9951
-1.8992 -1.1522 -1.2166 0.9899
-1.8554 -1.2189 -1.2159 0.9899
-1.8092 -1.2839 -1.2151 0.9899
-1.6019 -1.5252 -1.2114 0.9900
-1.5448 -1.5804 -1.2104 0.9900
-1.3623 -1.7329 -1.2073 0.9900
-1.2684 -1.7385 -1.1787 0.9902
-1.1782 -1.7431 -1.1524 0.9905
-1.0917 -1.7473 -1.1284 0.9906
-1.0085 -1.7510 -1.1067 0.9908
-0.8504 -1.7574 -1.0693 0.9911
-0.7765 -1.7635 -1.0553 0.9913
-0.5786 -1.8253 -1.0488 0.9913
-0.5121 -1.8429 -1.0476 0.9913
-0.3777 -1.8707 -1.0453 0.9913
-0.3099 -1.8810 -1.0441 0.9913
-0.2418 -1.8887 -1.0429 0.9914
-0.1736 -1.8940 -1.0417 0.9914
-0.1054 -1.8969 -1.0405 0.9914
-0.0371 -1.8972 -1.0393 0.9914
0.0310 -1.8952 -1.0381 0.9914
0.0989 -1.8907 -1.0370 0.9914
0.1666 -1.8838 -1.0358 0.9914
0.3007 -1.8627 -1.0334 0.9914
0.4327 -1.8322 -1.0311 0.9915
0.5619 -1.7925 -1.0289 0.9915
0.8412 -1.7528 -1.0649 0.9912
1.0803 -1.7414 -1.1224 0.9907
1.2447 -1.7176 -1.1618 0.9904
1.3044 -1.6702 -1.1607 0.9904
1.5754 -1.4046 -1.1560 0.9904
1.6236 -1.3461 -1.1551 0.9904
1.6698 -1.2860 -1.1543 0.9904
1.7137 -1.2244 -1.1536 0.9904
1.7555 -1.1613 -1.1528 0.9904
1.7950 -1.0969 -1.1522 0.9905
1.4124 -0.4323 -0.8090 0.9933
2.0873 -0.1705 -1.1470 0.9905
2.0940 -0.0202 -1.1469 0.9905
2.0901 0.1302 -1.1470 0.9905
2.0648 0.3544 -1.1474 0.9905
2.0512 0.4285 -1.1477 0.9905
2.0350 0.5020 -1.1480 0.9905
1.9949 0.6472 -1.1487 0.9905
1.9711 0.7187 -1.1491 0.9905
1.9448 0.7893 -1.1495 0.9905
1.9160 0.8590 -1.1500 0.9905
1.8512 0.9953 -1.1512 0.9905
1.7430 1.1054 -1.1304 0.9906
1.5050 1.1137 -1.0254 0.9915
1.6486 1.3141 -1.1547 0.9904
1.5523 1.4311 -1.1564 0.9904
1.4478 1.5413 -1.1582 0.9904
1.3927 1.5936 -1.1592 0.9904
1.3357 1.6440 -1.1602 0.9904
1.2769 1.6925 -1.1612 0.9904
0.8905 1.9376 -1.1679 0.9903
0.5328 2.0766 -1.1742 0.9903
0.4584 2.0967 -1.1755 0.9903
0.2310 2.1410 -1.1795 0.9902
-0.0007 2.1608 -1.1835 0.9902
-0.0784 2.1619 -1.1849 0.9902
-0.2339 2.1556 -1.1876 0.9902
-0.5427 2.1094 -1.1930 0.9901
-0.6188 2.0909 -1.1943 0.9901
-0.7690 2.0456 -1.1969 0.9901
-0.9877 1.9572 -1.2007 0.9901
-1.1279 1.8851 -1.2032 0.9900
-0.8662 1.3363 -0.8722 0.9928
-0.8600 1.2277 -0.8210 0.9932
-0.8992 1.1054 -0.7804 0.9935
-0.9672 1.1054 -0.8045 0.9933
-1.0396 1.1054 -0.8311 0.9931
-1.1171 1.1054 -0.8608 0.9929
-1.2005 1.1054 -0.8938 0.9926
-1.2906 1.1054 -0.9307 0.9923
1.8504 0.7428 -1.1512 0.9908
1.8233 0.8091 -1.1517 0.9908
1.7938 0.8744 -1.1522 0.9908
1.7621 0.9387 -1.1527 0.9908
1.7282 1.0019 -1.1533 0.9908
1.6536 1.1247 -1.1546 0.9908
1.6132 1.1841 -1.1553 0.9908
1.5260 1.2985 -1.1568 0.9908
1.4794 1.3535 -1.1577 0.9908
1.4309 1.4068 -1.1585 0.9908
1.3805 1.4584 -1.1594 0.9908
1.3282 1.5082 -1.1603 0.9908
1.2186 1.6023 -1.1622 0.9907
1.1612 1.6464 -1.1632 0.9907
0.8523 1.8359 -1.1686 0.9907
0.7197 1.8961 -1.1709 0.9907
0.6518 1.9227 -1.1721 0.9907
0.4426 1.9878 -1.1758 0.9906
0.2994 2.0187 -1.1783 0.9906
0.0808 2.0458 -1.1821 0.9906
-0.0665 2.0508 -1.1846 0.9906
-0.2140 2.0452 -1.1872 0.9905
-0.3610 2.0289 -1.1898 0.9905
-0.7916 1.9168 -1.1973 0.9905
-0.8608 1.8890 -1.1985 0.9905
-0.9290 1.8587 -1.1997 0.9904
-0.9962 1.8259 -1.2009 0.9904
-1.0621 1.7907 -1.2020 0.9904
-0.8672 1.2481 -0.8775 0.9930
-0.8587 1.1459 -0.8267 0.9934
-0.8922 1.1054 -0.8201 0.9935
-0.9597 1.1054 -0.8452 0.9933
-1.0317 1.1054 -0.8730 0.9930
-1.1912 1.1054 -0.9382 0.9925
-1.4839 1.1054 -1.0683 0.9915
-1.7298 1.1945 -1.2137 0.9903
-1.7727 1.1323 -1.2144 0.9903
-1.8133 1.0685 -1.2151 0.9903
-1.9207 0.8686 -1.2170 0.9903
-1.9515 0.7994 -1.2175 0.9903
-2.0054 0.6577 -1.2185 0.9903
-2.0812 0.3641 -1.2198 0.9903
