ply
format ascii 1.0
element vertex 1371
property float32 x
property float32 y
property float32 z
property float32 CosAngle
property uint32 ObjIdx
property uint32 ObjTag
end_header
-3.8488 3.6753 -1.2507 0.2165 0 7
-3.9862 3.5411 -1.2531 0.2161 0 7
-4.1187 3.4016 -1.2554 0.2157 0 7
-4.2460 3.2568 -1.2577 0.2153 0 7
-4.3679 3.1071 -1.2598 0.2149 0 7
-4.4842 2.9526 -1.2618 0.2146 0 7
-4.5946 2.7935 -1.2638 0.2142 0 7
-4.6989 2.6300 -1.2656 0.2139 0 7
-4.7970 2.4625 -1.2673 0.2136 0 7
-4.8888 2.2911 -1.2689 0.2134 0 6
-4.9739 2.1161 -1.2704 0.2131 0 7
-5.0523 1.9377 -1.2717 0.2129 0 7
-5.1238 1.7563 -1.2730 0.2127 0 7
-5.1883 1.5721 -1.2741 0.2125 0 7
-5.2457 1.3853 -1.2751 0.2123 0 7
-5.2958 1.1964 -1.2760 0.2122 0 7
-5.3385 1.0055 -1.2767 0.2121 0 7
-5.3738 0.8131 -1.2774 0.2120 0 7
-5.4017 0.6193 -1.2778 0.2119 0 7
-5.4220 0.4246 -1.2782 0.2118 0 7
-5.4347 0.2291 -1.2784 0.2118 0 7
-5.4398 0.0333 -1.2785 0.2118 0 7
-5.4373 -0.1626 -1.2785 0.2118 0 7
-5.4272 -0.3582 -1.2783 0.2118 0 7
-5.4094 -0.5532 -1.2780 0.2119 0 7
-5.3842 -0.7473 -1.2775 0.2119 0 7
-5.3514 -0.9403 -1.2770 0.2120 0 7
-5.3111 -1.1317 -1.2763 0.2121 0 7
-5.2635 -1.3213 -1.2754 0.2123 0 7
-5.2086 -1.5088 -1.2745 0.2124 0 7
-5.1465 -1.6939 -1.2734 0.2126 0 7
-4.7314 -1.7485 -1.1855 0.3706 0 8
-4.3894 -1.8043 -1.1154 0.2130 0 8
-4.3167 -1.9589 -1.1141 0.2133 0 14
-4.2382 -2.1104 -1.1127 0.2135 0 14
-3.9145 -2.1285 -1.0472 0.9719 0 19
-4.0642 -2.4034 -1.1097 0.2141 0 14
-3.9691 -2.5443 -1.1080 0.2145 0 14
-3.8688 -2.6813 -1.1063 0.2148 0 14
-3.7635 -2.8142 -1.1044 0.2151 0 14
-2.5648 -2.0659 -0.7740 0.8546 0 19
-2.4948 -2.1621 -0.7759 0.9280 0 19
-3.4194 -3.1861 -1.0984 0.2163 0 14
-3.2960 -3.3007 -1.0963 0.2167 0 14
-3.1686 -3.4103 -1.0941 0.2172 0 14
-3.0374 -3.5148 -1.0918 0.2176 0 14
-2.9026 -3.6141 -1.0894 0.2181 0 14
-2.7645 -3.7080 -1.0870 0.2186 0 14
-2.6232 -3.7965 -1.0845 0.2191 0 14
-2.4791 -3.8794 -1.0820 0.2196 0 14
-1.2072 -2.0480 -0.5587 0.5883 0 19
-1.1273 -2.0803 -0.5561 0.9695 0 19
-2.0316 -4.0944 -1.0742 0.2212 0 14
-1.8781 -4.1545 -1.0715 0.2218 0 14
-1.7230 -4.2087 -1.0688 0.2223 0 14
-0.7854 -2.1345 -0.5345 0.3360 0 19
-0.7160 -2.1859 -0.5406 0.2419 0 19
-1.2494 -4.3362 -1.0606 0.2241 0 14
-1.0896 -4.3668 -1.0578 0.2246 0 14
-0.9292 -4.3916 -1.0550 0.2252 0 14
-0.7685 -4.4104 -1.0522 0.2258 0 14
-0.3017 -2.1966 -0.5211 0.1571 0 19
-0.4467 -4.4305 -1.0465 0.2270 0 14
-0.2862 -4.4318 -1.0437 0.2277 0 14
-0.1261 -4.4274 -1.0410 0.2283 0 14
0.0333 -4.4172 -1.0382 0.2289 0 14
0.0934 -2.1442 -0.5044 0.4124 0 19
0.1647 -2.0656 -0.4870 0.9262 0 19
0.2397 -2.0645 -0.4885 0.8531 0 19
0.6600 -4.3206 -1.0272 0.2313 0 14
0.8130 -4.2829 -1.0246 0.2319 0 14
0.8043 -3.5367 -0.8524 0.7951 0 5
1.1134 -4.1917 -1.0193 0.2331 0 14
1.2604 -4.1385 -1.0168 0.2337 0 14
1.4051 -4.0803 -1.0142 0.2343 0 14
1.5473 -4.0172 -1.0117 0.2349 0 14
1.6868 -3.9494 -1.0093 0.2354 0 14
1.8236 -3.8769 -1.0069 0.2360 0 14
1.9574 -3.7999 -1.0046 0.2365 0 14
2.0882 -3.7185 -1.0023 0.2371 0 14
2.2158 -3.6328 -1.0001 0.2376 0 14
2.3401 -3.5430 -0.9979 0.2381 0 14
1.5158 -2.1245 -0.6134 0.8246 0 19
1.5876 -2.0638 -0.6119 0.9371 0 19
2.6918 -3.2499 -0.9918 0.2396 0 14
2.8016 -3.1448 -0.9898 0.2401 0 14
2.9076 -3.0362 -0.9880 0.2405 0 14
3.0096 -2.9242 -0.9862 0.2409 0 14
3.1075 -2.8091 -0.9845 0.2414 0 14
3.2013 -2.6909 -0.9829 0.2418 0 14
3.2908 -2.5698 -0.9813 0.2421 0 14
2.9322 -2.1244 -0.8510 0.9443 0 19
3.1049 -2.0833 -0.8788 0.1957 0 19
3.5334 -2.1906 -0.9771 0.2432 0 14
3.6054 -2.0593 -0.9758 0.2435 0 14
3.6727 -1.9258 -0.9746 0.2438 0 14
3.7355 -1.7903 -0.9735 0.2441 0 8
4.0144 -1.7492 -1.0292 0.4268 0 8
4.3832 -1.7249 -1.1070 0.2446 0 7
4.4386 -1.5646 -1.1061 0.2448 0 7
1.7225 -0.5383 -0.4241 0.4207 47 10
1.7322 -0.4736 -0.4220 0.4228 47 10
1.7405 -0.4091 -0.4202 0.4246 47 10
1.7477 -0.3449 -0.4187 0.4262 47 10
2.0273 -0.3248 -0.4825 0.5529 47 10
4.6549 -0.5747 -1.1023 0.2456 0 7
4.6713 -0.4066 -1.1020 0.2457 0 7
4.6821 -0.2381 -1.1018 0.2457 0 7
4.6873 -0.0694 -1.1017 0.2457 0 7
4.6868 0.0994 -1.1017 0.2457 0 7
4.6806 0.2681 -1.1019 0.2457 0 7
4.6688 0.4365 -1.1021 0.2457 0 7
1.2056 4.3250 -1.1625 0.2552 0 7
1.0516 4.3757 -1.1652 0.2546 0 7
0.8954 4.4210 -1.1679 0.2540 0 7
0.7374 4.4609 -1.1707 0.2534 0 7
0.5777 4.4952 -1.1735 0.2528 0 7
0.4165 4.5239 -1.1763 0.2522 0 7
0.2540 4.5469 -1.1791 0.2516 0 7
0.0903 4.5642 -1.1820 0.2509 0 7
-0.0742 4.5756 -1.1848 0.2503 0 7
-0.2395 4.5810 -1.1877 0.2497 0 7
-0.4053 4.5806 -1.1906 0.2491 0 7
-0.5713 4.5741 -1.1935 0.2485 0 7
-0.7374 4.5616 -1.1964 0.2479 0 7
-0.9033 4.5431 -1.1993 0.2473 0 7
-1.0689 4.5185 -1.2022 0.2467 0 7
-1.2338 4.4878 -1.2051 0.2461 0 7
-1.3979 4.4510 -1.2080 0.2456 0 7
-1.5609 4.4082 -1.2108 0.2450 0 7
-1.7226 4.3593 -1.2136 0.2444 0 7
-1.8828 4.3043 -1.2164 0.2438 0 7
-2.0411 4.2434 -1.2192 0.2433 0 7
-2.1975 4.1765 -1.2219 0.2427 0 7
-2.3516 4.1036 -1.2246 0.2422 0 7
-2.5032 4.0250 -1.2272 0.2417 0 7
-2.6521 3.9406 -1.2298 0.2412 0 7
-2.7980 3.8505 -1.2324 0.2407 0 7
-2.9408 3.7549 -1.2349 0.2402 0 7
-3.0801 3.6537 -1.2373 0.2397 0 7
-1.2170 1.3424 -0.4692 0.3624 47 10
-1.2886 1.3224 -0.4781 0.1016 47 10
-3.4754 3.3187 -1.2442 0.2384 0 7
-1.4695 1.3054 -0.5089 0.3821 47 10
-3.7178 3.0704 -1.2484 0.2376 0 7
-3.8320 2.9393 -1.2504 0.2372 0 7
-3.9414 2.8037 -1.2524 0.2368 0 7
-4.0456 2.6638 -1.2542 0.2365 0 7
-4.1446 2.5199 -1.2559 0.2362 0 7
-4.2382 2.3722 -1.2575 0.2359 0 7
-4.3261 2.2207 -1.2591 0.2356 0 6
-4.4083 2.0659 -1.2605 0.2353 0 7
-4.4845 1.9079 -1.2618 0.2351 0 7
-4.5547 1.7469 -1.2631 0.2348 0 7
-4.6187 1.5831 -1.2642 0.2346 0 7
-4.6765 1.4170 -1.2652 0.2344 0 7
-4.7278 1.2486 -1.2661 0.2343 0 7
-4.7726 1.0782 -1.2669 0.2341 0 7
-4.8109 0.9062 -1.2675 0.2340 0 7
-4.8425 0.7327 -1.2681 0.2339 0 7
-4.8674 0.5581 -1.2685 0.2338 0 7
-4.8856 0.3826 -1.2688 0.2338 0 7
-4.8969 0.2064 -1.2690 0.2337 0 7
-4.9015 0.0300 -1.2691 0.2337 0 7
-4.8992 -0.1465 -1.2691 0.2337 0 7
-4.8902 -0.3227 -1.2689 0.2338 0 7
-4.8743 -0.4985 -1.2686 0.2338 0 7
-4.8517 -0.6734 -1.2682 0.2339 0 7
-4.8224 -0.8473 -1.2677 0.2340 0 7
-4.7864 -1.0199 -1.2671 0.2341 0 7
-4.7438 -1.1908 -1.2664 0.2342 0 6
-4.6946 -1.3599 -1.2655 0.2344 0 7
-4.6391 -1.5269 -1.2645 0.2346 0 7
-4.5772 -1.6915 -1.2634 0.2348 0 7
-4.2483 -1.7462 -1.1893 0.4047 0 8
-3.8927 -1.7665 -1.1068 0.4492 0 8
-3.8219 -1.9032 -1.1055 0.2355 0 8
-3.7464 -2.0371 -1.1041 0.2358 0 14
-3.6660 -2.1679 -1.1027 0.2361 0 14
-3.5807 -2.2954 -1.1013 0.2364 0 14
-3.4908 -2.4193 -1.0997 0.2367 0 14
-3.3963 -2.5396 -1.0980 0.2371 0 14
-2.5644 -2.0656 -0.8526 0.8500 0 19
-2.4938 -2.1612 -0.8544 0.9232 0 19
-3.0875 -2.8768 -1.0926 0.2383 0 14
-2.9766 -2.9808 -1.0907 0.2387 0 14
-2.8621 -3.0804 -1.0887 0.2391 0 14
-2.7442 -3.1755 -1.0867 0.2396 0 14
-2.6229 -3.2658 -1.0845 0.2400 0 14
-2.4986 -3.3514 -1.0824 0.2405 0 14
-2.3715 -3.4321 -1.0801 0.2410 0 14
-2.2417 -3.5079 -1.0779 0.2415 0 14
-1.2075 -2.0485 -0.6157 0.5849 0 19
-1.1271 -2.0799 -0.6125 0.9642 0 19
-1.8383 -3.7048 -1.0708 0.2431 0 14
-1.6999 -3.7601 -1.0684 0.2437 0 14
-1.5598 -3.8101 -1.0660 0.2442 0 14
-1.4183 -3.8549 -1.0635 0.2448 0 14
-1.2756 -3.8943 -1.0610 0.2454 0 14
-1.1319 -3.9284 -1.0585 0.2459 0 14
-0.9874 -3.9571 -1.0560 0.2465 0 14
-0.8423 -3.9805 -1.0535 0.2471 0 14
-0.6967 -3.9986 -1.0509 0.2477 0 14
-0.5510 -4.0114 -1.0484 0.2483 0 14
-0.4052 -4.0188 -1.0458 0.2489 0 14
-0.2596 -4.0210 -1.0433 0.2495 0 14
-0.1144 -4.0180 -1.0407 0.2501 0 14
0.0302 -4.0097 -1.0382 0.2507 0 14
0.0935 -2.1462 -0.5562 0.4097 0 19
0.1647 -2.0659 -0.5366 0.9209 0 19
0.2396 -2.0642 -0.5380 0.8485 0 19
0.5997 -3.9259 -1.0283 0.2532 0 14
0.7389 -3.8926 -1.0259 0.2538 0 14
0.8041 -3.5357 -0.9388 0.7909 0 5
1.0124 -3.8115 -1.0211 0.2550 0 14
1.1463 -3.7639 -1.0187 0.2555 0 14
1.2782 -3.7118 -1.0164 0.2561 0 14
1.4079 -3.6552 -1.0142 0.2567 0 14
1.5352 -3.5943 -1.0120 0.2573 0 14
1.6600 -3.5291 -1.0098 0.2578 0 14
1.7822 -3.4597 -1.0076 0.2584 0 14
1.9017 -3.3863 -1.0056 0.2589 0 14
2.0182 -3.3089 -1.0035 0.2594 0 14
2.1318 -3.2277 -1.0015 0.2599 0 14
1.5165 -2.1255 -0.6760 0.8197 0 19
1.5879 -2.0641 -0.6743 0.9317 0 19
2.4536 -2.9623 -0.9959 0.2614 0 14
2.5541 -2.8670 -0.9942 0.2619 0 14
2.6512 -2.7685 -0.9925 0.2623 0 14
2.7446 -2.6668 -0.9908 0.2627 0 14
2.8344 -2.5622 -0.9893 0.2631 0 14
2.9204 -2.4548 -0.9878 0.2635 0 14
3.0025 -2.3447 -0.9863 0.2639 0 14
2.9333 -2.1252 -0.9379 0.9387 0 19
3.1025 -2.0816 -0.9673 0.1948 0 19
3.2250 -1.9993 -0.9825 0.2650 0 14
3.2910 -1.8797 -0.9813 0.2653 0 8
3.3631 -1.7634 -0.9832 0.5057 0 8
3.6454 -1.7471 -1.0467 0.4598 0 8
3.9467 -1.7197 -1.1147 0.2661 0 7
4.0026 -1.5751 -1.1137 0.2663 0 7
4.0534 -1.4288 -1.1128 0.2665 0 7
1.6342 -0.5107 -0.4433 0.4410 47 10
1.6438 -0.4494 -0.4412 0.4431 47 10
1.6521 -0.3883 -0.4394 0.4449 47 10
1.6592 -0.3275 -0.4379 0.4465 47 10
1.9633 -0.3145 -0.5148 0.1531 47 10
2.0833 -0.2572 -0.5435 0.5378 47 10
4.2673 -0.3714 -1.1091 0.2674 0 7
4.2773 -0.2175 -1.1089 0.2675 0 7
4.2820 -0.0634 -1.1088 0.2675 0 7
4.2816 0.0908 -1.1088 0.2675 0 7
4.2759 0.2449 -1.1089 0.2675 0 7
4.2650 0.3988 -1.1091 0.2674 0 7
1.1044 3.9617 -1.1643 0.2769 0 7
0.9631 4.0073 -1.1667 0.2763 0 7
0.8199 4.0480 -1.1692 0.2757 0 7
0.6751 4.0837 -1.1718 0.2751 0 7
0.5288 4.1143 -1.1743 0.2745 0 7
0.3811 4.1398 -1.1769 0.2739 0 7
0.2324 4.1600 -1.1795 0.2733 0 7
0.0826 4.1749 -1.1821 0.2727 0 7
-0.0679 4.1844 -1.1847 0.2721 0 7
-0.2190 4.1886 -1.1874 0.2715 0 7
-0.3705 4.1873 -1.1900 0.2709 0 7
-0.5221 4.1805 -1.1927 0.2703 0 7
-0.6738 4.1682 -1.1953 0.2697 0 7
-0.8253 4.1504 -1.1980 0.2691 0 7
-0.9763 4.1271 -1.2006 0.2685 0 7
-1.1267 4.0982 -1.2032 0.2679 0 7
-1.2763 4.0638 -1.2058 0.2673 0 7
-1.4248 4.0238 -1.2084 0.2667 0 7
-1.5721 3.9784 -1.2110 0.2662 0 7
-1.7179 3.9274 -1.2135 0.2656 0 7
-1.8620 3.8710 -1.2161 0.2651 0 7
-2.0043 3.8093 -1.2185 0.2645 0 7
-2.1444 3.7421 -1.2210 0.2640 0 7
-2.2823 3.6697 -1.2234 0.2635 0 7
-2.4176 3.5921 -1.2258 0.2630 0 7
-2.5501 3.5093 -1.2281 0.2625 0 7
-2.6797 3.4215 -1.2303 0.2620 0 7
-1.1116 1.3186 -0.4882 0.3784 47 10
-1.1443 1.2622 -0.4823 0.3830 47 10
-1.1752 1.2061 -0.4767 0.3875 47 10
-1.2044 1.1501 -0.4714 0.3919 47 10
-1.2443 1.1054 -0.4712 0.6390 47 10
-1.3384 1.1054 -0.4914 0.6127 47 10
-1.4889 1.1420 -0.5312 0.3978 47 10
-1.4715 1.0468 -0.5112 0.4134 47 10
-3.6814 2.4240 -1.2478 0.2583 0 7
-3.7710 2.2928 -1.2494 0.2580 0 6
-3.8557 2.1581 -1.2509 0.2577 0 7
-3.9352 2.0201 -1.2522 0.2574 0 7
-4.0095 1.8790 -1.2535 0.2571 0 7
-4.0785 1.7351 -1.2547 0.2569 0 7
-4.1420 1.5886 -1.2559 0.2567 0 7
-4.1999 1.4396 -1.2569 0.2565 0 7
-4.2521 1.2884 -1.2578 0.2563 0 7
-4.2985 1.1352 -1.2586 0.2561 0 7
-4.3390 0.9802 -1.2593 0.2560 0 7
-4.3736 0.8238 -1.2599 0.2558 0 7
-4.4021 0.6661 -1.2604 0.2557 0 7
-4.4246 0.5073 -1.2608 0.2557 0 7
-4.4410 0.3477 -1.2611 0.2556 0 7
-4.4513 0.1877 -1.2613 0.2556 0 7
-4.4554 0.0273 -1.2613 0.2556 0 7
-4.4534 -0.1331 -1.2613 0.2556 0 7
-4.4452 -0.2934 -1.2611 0.2556 0 7
-4.4309 -0.4531 -1.2609 0.2556 0 7
-4.4104 -0.6122 -1.2605 0.2557 0 7
-4.3839 -0.7703 -1.2601 0.2558 0 7
-4.3514 -0.9272 -1.2595 0.2559 0 7
-4.3129 -1.0827 -1.2588 0.2561 0 7
-4.2685 -1.2365 -1.2581 0.2562 0 6
-4.2183 -1.3884 -1.2572 0.2564 0 7
-4.1623 -1.5382 -1.2562 0.2566 0 7
-4.1007 -1.6856 -1.2551 0.2568 0 7
-3.8430 -1.7439 -1.1947 0.4378 0 8
-3.5293 -1.7574 -1.1161 0.4686 0 8
-3.4082 -1.8532 -1.0982 0.2576 0 8
-3.3354 -1.9724 -1.0970 0.2579 0 14
-3.2582 -2.0886 -1.0956 0.2582 0 14
-3.1768 -2.2017 -1.0942 0.2585 0 14
-3.0912 -2.3115 -1.0927 0.2589 0 14
-2.5639 -2.0652 -0.9320 0.8450 0 19
-2.4927 -2.1604 -0.9338 0.9180 0 19
-2.8114 -2.6196 -1.0878 0.2601 0 14
-2.7108 -2.7147 -1.0861 0.2605 0 14
-2.6070 -2.8058 -1.0843 0.2609 0 14
-2.5000 -2.8929 -1.0824 0.2614 0 14
-2.3899 -2.9757 -1.0805 0.2618 0 14
-2.2771 -3.0543 -1.0785 0.2623 0 14
-2.1616 -3.1284 -1.0765 0.2628 0 14
-2.0437 -3.1981 -1.0744 0.2633 0 14
-1.2078 -2.0491 -0.6734 0.5812 0 19
-1.1269 -2.0796 -0.6696 0.9585 0 19
-1.6769 -3.3795 -1.0680 0.2649 0 14
-1.5509 -3.4306 -1.0658 0.2654 0 14
-1.4234 -3.4770 -1.0636 0.2660 0 14
-1.2946 -3.5185 -1.0613 0.2665 0 14
-1.1646 -3.5552 -1.0591 0.2671 0 14
-1.0336 -3.5871 -1.0568 0.2677 0 14
-0.9018 -3.6141 -1.0545 0.2683 0 14
-0.7694 -3.6362 -1.0522 0.2689 0 14
-0.6366 -3.6535 -1.0499 0.2695 0 14
-0.5035 -3.6659 -1.0475 0.2701 0 14
-0.3704 -3.6735 -1.0452 0.2707 0 14
-0.2374 -3.6763 -1.0429 0.2713 0 14
-0.1046 -3.6743 -1.0406 0.2719 0 14
0.0277 -3.6675 -1.0383 0.2725 0 14
0.0936 -2.1481 -0.6087 0.4069 0 19
0.1648 -2.0663 -0.5868 0.9152 0 19
0.2396 -2.0638 -0.5882 0.8435 0 19
0.5490 -3.5938 -1.0292 0.2749 0 14
0.6765 -3.5639 -1.0269 0.2755 0 14
0.8027 -3.5297 -1.0247 0.2761 0 14
0.9273 -3.4911 -1.0226 0.2767 0 14
1.0501 -3.4482 -1.0204 0.2772 0 14
1.1712 -3.4011 -1.0183 0.2778 0 14
1.2902 -3.3499 -1.0162 0.2784 0 14
1.4072 -3.2946 -1.0142 0.2789 0 14
1.5219 -3.2354 -1.0122 0.2795 0 14
1.6342 -3.1724 -1.0102 0.2800 0 14
1.7440 -3.1056 -1.0083 0.2806 0 14
1.8513 -3.0351 -1.0064 0.2811 0 14
1.9558 -2.9611 -1.0046 0.2816 0 14
1.5172 -2.1264 -0.7395 0.8143 0 19
1.5881 -2.0644 -0.7374 0.9259 0 19
2.2520 -2.7189 -0.9994 0.2831 0 14
2.3446 -2.6318 -0.9978 0.2835 0 14
2.4340 -2.5417 -0.9963 0.2840 0 14
2.5202 -2.4487 -0.9948 0.2844 0 14
2.6029 -2.3530 -0.9933 0.2848 0 14
2.6822 -2.2546 -0.9919 0.2852 0 14
2.7579 -2.1537 -0.9906 0.2856 0 14
2.8301 -2.0504 -0.9894 0.2859 0 14
2.8986 -1.9448 -0.9882 0.2863 0 14
2.9633 -1.8371 -0.9870 0.2866 0 8
3.0763 -1.7571 -1.0029 0.5215 0 8
3.3279 -1.7450 -1.0638 0.4917 0 8
3.5716 -1.7118 -1.1212 0.2875 0 7
3.6277 -1.5807 -1.1202 0.2877 0 7
3.6793 -1.4479 -1.1193 0.2880 0 7
1.5846 -0.5586 -0.4756 0.7411 47 10
1.5903 -0.4970 -0.4717 0.7473 47 10
1.5953 -0.4362 -0.4682 0.7528 47 10
1.5997 -0.3760 -0.4652 0.7577 47 10
1.6033 -0.3164 -0.4626 0.7619 47 10
1.9633 -0.3145 -0.5629 0.1522 47 10
2.1287 -0.2628 -0.6072 0.7987 47 10
3.9240 -0.3416 -1.1151 0.2891 0 7
3.9332 -0.2000 -1.1149 0.2891 0 7
3.9376 -0.0583 -1.1148 0.2891 0 7
3.9371 0.0835 -1.1148 0.2891 0 7
3.9319 0.2252 -1.1149 0.2891 0 7
3.9219 0.3667 -1.1151 0.2891 0 7
1.0178 3.6510 -1.1658 0.2984 0 7
0.8874 3.6925 -1.1681 0.2978 0 7
0.7554 3.7294 -1.1704 0.2973 0 7
0.6218 3.7616 -1.1727 0.2967 0 7
0.4870 3.7892 -1.1751 0.2961 0 7
0.3510 3.8119 -1.1774 0.2955 0 7
0.2139 3.8299 -1.1798 0.2949 0 7
0.0761 3.8429 -1.1822 0.2943 0 7
-0.0625 3.8510 -1.1846 0.2937 0 7
-0.2015 3.8541 -1.1871 0.2931 0 7
-0.3408 3.8523 -1.1895 0.2925 0 7
-0.4803 3.8454 -1.1919 0.2919 0 7
-0.6197 3.8334 -1.1944 0.2913 0 7
-0.7588 3.8163 -1.1968 0.2907 0 7
-0.8975 3.7942 -1.1992 0.2901 0 7
-1.0356 3.7670 -1.2016 0.2895 0 7
-1.1729 3.7347 -1.2040 0.2889 0 7
-1.3092 3.6973 -1.2064 0.2884 0 7
-1.4443 3.6549 -1.2088 0.2878 0 7
-1.5780 3.6075 -1.2111 0.2873 0 7
-1.7101 3.5551 -1.2134 0.2867 0 7
-1.8404 3.4978 -1.2157 0.2862 0 7
-1.9688 3.4356 -1.2179 0.2856 0 7
-2.0950 3.3685 -1.2201 0.2851 0 7
-2.2188 3.2968 -1.2223 0.2846 0 7
-2.3401 3.2203 -1.2244 0.2841 0 7
-1.0456 1.3351 -0.5216 0.5661 47 10
-1.0658 1.2643 -0.5086 0.5805 47 10
-1.0845 1.1962 -0.4966 0.5945 47 10
-1.1089 1.1380 -0.4887 0.4080 47 10
-1.1576 1.1054 -0.4923 0.6601 47 10
-1.2443 1.1054 -0.5119 0.6348 47 10
-1.3384 1.1054 -0.5339 0.6086 47 10
-1.4411 1.1054 -0.5586 0.5817 47 10
-1.5286 1.0874 -0.5770 0.3953 47 10
-3.3737 2.2214 -1.2424 0.2800 0 7
-3.4555 2.1009 -1.2439 0.2797 0 7
-3.5327 1.9773 -1.2452 0.2794 0 7
-3.6053 1.8507 -1.2465 0.2791 0 7
-3.6731 1.7214 -1.2477 0.2788 0 7
-3.7359 1.5894 -1.2488 0.2786 0 7
-3.7938 1.4550 -1.2498 0.2784 0 7
-3.8466 1.3185 -1.2507 0.2782 0 7
-3.8941 1.1799 -1.2515 0.2780 0 7
-3.9364 1.0396 -1.2523 0.2778 0 7
-3.9733 0.8976 -1.2529 0.2777 0 7
-4.0048 0.7543 -1.2535 0.2775 0 7
-4.0308 0.6099 -1.2539 0.2774 0 7
-4.0513 0.4645 -1.2543 0.2774 0 7
-4.0663 0.3184 -1.2545 0.2773 0 7
-4.0756 0.1718 -1.2547 0.2773 0 7
-4.0794 0.0250 -1.2548 0.2773 0 7
-4.0775 -0.1219 -1.2547 0.2773 0 7
-4.0701 -0.2686 -1.2546 0.2773 0 7
-4.0570 -0.4149 -1.2544 0.2773 0 7
-4.0384 -0.5605 -1.2540 0.2774 0 7
-4.0143 -0.7053 -1.2536 0.2775 0 7
-3.9846 -0.8491 -1.2531 0.2776 0 7
-3.9496 -0.9915 -1.2525 0.2778 0 7
-3.9091 -1.1324 -1.2518 0.2779 0 7
-3.8633 -1.2716 -1.2510 0.2781 0 6
-3.8123 -1.4088 -1.2501 0.2783 0 7
-3.7562 -1.5440 -1.2491 0.2785 0 7
-3.6950 -1.6768 -1.2480 0.2788 0 7
-3.4973 -1.7415 -1.2017 0.4697 0 8
-3.2258 -1.7540 -1.1294 0.4998 0 8
-3.0562 -1.8073 -1.0921 0.2796 0 8
-2.9909 -1.9172 -1.0927 0.5627 0 8
-2.9115 -2.0179 -1.0896 0.2802 0 14
-2.8334 -2.1187 -1.0882 0.2806 0 14
-2.5634 -2.0648 -1.0124 0.8396 0 19
-2.4917 -2.1595 -1.0142 0.9123 0 19
-2.5779 -2.4020 -1.0837 0.2817 0 14
-2.4860 -2.4896 -1.0821 0.2822 0 14
-2.3911 -2.5735 -1.0805 0.2826 0 14
-2.2933 -2.6537 -1.0788 0.2830 0 14
-2.1927 -2.7301 -1.0770 0.2835 0 14
-2.0895 -2.8026 -1.0752 0.2840 0 14
-1.9838 -2.8711 -1.0734 0.2845 0 14
-1.8758 -2.9355 -1.0715 0.2850 0 14
-1.2081 -2.0496 -0.7318 0.5772 0 19
-1.1268 -2.0793 -0.7274 0.9523 0 19
-1.5399 -3.1035 -1.0656 0.2865 0 14
-1.4245 -3.1510 -1.0636 0.2871 0 14
-1.3076 -3.1941 -1.0616 0.2876 0 14
-1.1895 -3.2328 -1.0595 0.2882 0 14
-1.0702 -3.2671 -1.0574 0.2887 0 14
-0.9500 -3.2970 -1.0553 0.2893 0 14
-0.8290 -3.3224 -1.0532 0.2899 0 14
-0.7074 -3.3433 -1.0511 0.2905 0 14
-0.5854 -3.3598 -1.0490 0.2911 0 14
-0.4631 -3.3718 -1.0468 0.2917 0 14
-0.3407 -3.3794 -1.0447 0.2923 0 14
-0.2184 -3.3825 -1.0426 0.2929 0 14
-0.0963 -3.3813 -1.0404 0.2935 0 14
0.0255 -3.3756 -1.0383 0.2941 0 14
0.0937 -2.1501 -0.6620 0.4038 0 19
0.1648 -2.0666 -0.6377 0.9089 0 19
0.2396 -2.0634 -0.6389 0.8381 0 19
0.5056 -3.3101 -1.0299 0.2965 0 14
0.6232 -3.2832 -1.0279 0.2971 0 14
0.7396 -3.2522 -1.0258 0.2976 0 14
0.8545 -3.2171 -1.0238 0.2982 0 14
0.9679 -3.1781 -1.0219 0.2988 0 14
1.0796 -3.1352 -1.0199 0.2994 0 14
1.1896 -3.0885 -1.0180 0.2999 0 14
1.2976 -3.0381 -1.0161 0.3005 0 14
1.4036 -2.9839 -1.0143 0.3010 0 14
1.5074 -2.9262 -1.0124 0.3016 0 14
1.6089 -2.8650 -1.0107 0.3021 0 14
1.7081 -2.8004 -1.0089 0.3026 0 14
1.8048 -2.7325 -1.0072 0.3031 0 14
1.5179 -2.1274 -0.8038 0.8085 0 19
1.5884 -2.0648 -0.8013 0.9196 0 19
2.0790 -2.5100 -1.0025 0.3046 0 14
2.1648 -2.4299 -1.0010 0.3050 0 14
2.2476 -2.3470 -0.9995 0.3055 0 14
2.3274 -2.2614 -0.9981 0.3059 0 14
2.4041 -2.1732 -0.9968 0.3063 0 14
2.4776 -2.0826 -0.9955 0.3067 0 14
2.5478 -1.9896 -0.9943 0.3071 0 14
2.6147 -1.8943 -0.9931 0.3074 0 8
2.6782 -1.7970 -0.9920 0.3078 0 8
2.8292 -1.7540 -1.0239 0.5513 0 8
3.0512 -1.7427 -1.0808 0.5223 0 8
3.2448 -1.7014 -1.1269 0.3087 0 7
3.3011 -1.5821 -1.1259 0.3090 0 7
3.3532 -1.4611 -1.1250 0.3092 0 7
3.4011 -1.3384 -1.1242 0.3095 0 7
1.5443 -0.5443 -0.5036 0.7554 47 10
1.5502 -0.4844 -0.4995 0.7616 47 10
1.5553 -0.4252 -0.4959 0.7671 47 10
1.5598 -0.3666 -0.4928 0.7719 47 10
1.5936 -0.3145 -0.4996 0.1851 47 10
1.9633 -0.3145 -0.6116 0.1512 47 10
2.1510 -0.2656 -0.6666 0.7852 47 10
3.6283 -0.3158 -1.1202 0.3106 0 7
3.6369 -0.1850 -1.1201 0.3106 0 7
3.6410 -0.0539 -1.1200 0.3106 0 7
3.6406 0.0772 -1.1200 0.3106 0 7
3.6357 0.2083 -1.1201 0.3106 0 7
3.6264 0.3391 -1.1203 0.3106 0 7
0.9428 3.3821 -1.1671 0.3198 0 7
0.8219 3.4200 -1.1692 0.3193 0 7
0.6995 3.4537 -1.1713 0.3187 0 7
0.5758 3.4831 -1.1735 0.3181 0 7
0.4509 3.5080 -1.1757 0.3175 0 7
0.3249 3.5286 -1.1779 0.3169 0 7
0.1980 3.5447 -1.1801 0.3163 0 7
0.0704 3.5562 -1.1823 0.3157 0 7
-0.0578 3.5631 -1.1846 0.3151 0 7
-0.1864 3.5655 -1.1868 0.3145 0 7
-0.3153 3.5632 -1.1891 0.3139 0 7
-0.4442 3.5563 -1.1913 0.3133 0 7
-0.5730 3.5446 -1.1936 0.3127 0 7
-0.7016 3.5283 -1.1958 0.3122 0 7
-0.8297 3.5073 -1.1980 0.3116 0 7
-0.9572 3.4817 -1.2003 0.3110 0 7
-1.0839 3.4513 -1.2025 0.3104 0 7
-1.2097 3.4162 -1.2047 0.3099 0 7
-1.3343 3.3766 -1.2068 0.3093 0 7
-1.4576 3.3323 -1.2090 0.3088 0 7
-1.5794 3.2834 -1.2111 0.3082 0 7
-1.6995 3.2300 -1.2132 0.3077 0 7
-1.8178 3.1721 -1.2153 0.3072 0 7
-1.9340 3.1098 -1.2173 0.3066 0 7
-2.0481 3.0431 -1.2193 0.3061 0 7
-2.1598 2.9721 -1.2213 0.3057 0 7
-1.0100 1.2896 -0.5445 0.5818 47 10
-1.0304 1.2223 -0.5314 0.5962 47 10
-1.0492 1.1574 -0.5193 0.6101 47 10
-1.0771 1.1054 -0.5130 0.6796 47 10
-1.1576 1.1054 -0.5320 0.6554 47 10
-1.2443 1.1054 -0.5533 0.6302 47 10
-1.3384 1.1054 -0.5770 0.6043 47 10
-1.4411 1.1054 -0.6037 0.5775 47 10
-1.5913 1.1320 -0.6491 0.3770 47 10
-3.1102 2.0479 -1.2378 0.3016 0 7
-3.1853 1.9367 -1.2392 0.3012 0 7
-3.2562 1.8225 -1.2404 0.3009 0 7
-3.3228 1.7057 -1.2416 0.3007 0 7
-3.3850 1.5864 -1.2426 0.3004 0 7
-3.4427 1.4647 -1.2436 0.3001 0 7
-3.4958 1.3408 -1.2446 0.2999 0 7
-3.5443 1.2149 -1.2454 0.2997 0 7
-3.5879 1.0871 -1.2462 0.2995 0 7
-3.6267 0.9578 -1.2469 0.2994 0 7
-3.6605 0.8270 -1.2474 0.2992 0 7
-3.6894 0.6949 -1.2480 0.2991 0 7
-3.7133 0.5618 -1.2484 0.2990 0 7
-3.7321 0.4279 -1.2487 0.2989 0 7
-3.7458 0.2933 -1.2489 0.2989 0 7
-3.7544 0.1583 -1.2491 0.2988 0 7
-3.7578 0.0230 -1.2491 0.2988 0 7
-3.7561 -0.1123 -1.2491 0.2988 0 7
-3.7493 -0.2474 -1.2490 0.2989 0 7
-3.7373 -0.3822 -1.2488 0.2989 0 7
-3.7203 -0.5164 -1.2485 0.2990 0 7
-3.6981 -0.6498 -1.2481 0.2991 0 7
-3.6709 -0.7822 -1.2476 0.2992 0 7
-3.6387 -0.9134 -1.2471 0.2993 0 7
-1.4691 -0.4256 -0.5084 0.4813 47 10
-1.4762 -0.4859 -0.5166 0.4737 47 10
-1.4844 -0.5486 -0.5260 0.4652 47 10
-3.4613 -1.4228 -1.2440 0.3001 0 7
-3.4052 -1.5452 -1.2430 0.3003 0 7
-3.3445 -1.6654 -1.2419 0.3006 0 7
-3.1982 -1.7390 -1.2101 0.5005 0 8
-2.9603 -1.7506 -1.1432 0.5298 0 8
-2.7546 -1.7658 -1.0876 0.5753 0 8
-2.6842 -1.8604 -1.0856 0.3018 0 8
-2.6125 -1.9535 -1.0844 0.3021 0 14
-2.5374 -2.0439 -1.0830 0.3025 0 14
-2.4591 -2.1312 -1.0817 0.3029 0 14
-2.3776 -2.2154 -1.0803 0.3033 0 14
-2.2932 -2.2965 -1.0788 0.3037 0 14
-2.2059 -2.3742 -1.0773 0.3041 0 14
-2.1159 -2.4485 -1.0757 0.3046 0 14
-2.0233 -2.5193 -1.0741 0.3050 0 14
-1.9283 -2.5865 -1.0724 0.3055 0 14
-1.8311 -2.6500 -1.0707 0.3060 0 14
-1.7317 -2.7098 -1.0690 0.3065 0 14
-1.2084 -2.0502 -0.7911 0.5729 0 19
-1.1266 -2.0789 -0.7860 0.9456 0 19
-1.1137 -2.2446 -0.8329 0.0643 0 19
-1.3158 -2.9104 -1.0617 0.3086 0 14
-1.2080 -2.9507 -1.0598 0.3091 0 14
-1.0990 -2.9869 -1.0579 0.3097 0 14
-0.9889 -3.0190 -1.0560 0.3102 0 14
-0.8780 -3.0471 -1.0541 0.3108 0 14
-0.7663 -3.0710 -1.0521 0.3114 0 14
-0.6540 -3.0909 -1.0502 0.3120 0 14
-0.5413 -3.1066 -1.0482 0.3125 0 14
-0.4283 -3.1182 -1.0462 0.3131 0 14
-0.3152 -3.1257 -1.0443 0.3137 0 14
-0.2020 -3.1290 -1.0423 0.3143 0 14
-0.0891 -3.1284 -1.0403 0.3149 0 14
0.0236 -3.1236 -1.0383 0.3155 0 14
0.0938 -2.1522 -0.7161 0.4005 0 19
0.1648 -2.0670 -0.6893 0.9023 0 19
0.2395 -2.0630 -0.6904 0.8322 0 19
0.4682 -3.0648 -1.0306 0.3179 0 14
0.5771 -3.0404 -1.0287 0.3185 0 14
0.6850 -3.0121 -1.0268 0.3191 0 14
0.7915 -2.9801 -1.0249 0.3196 0 14
0.8967 -2.9443 -1.0231 0.3202 0 14
1.0004 -2.9050 -1.0213 0.3208 0 14
1.1024 -2.8621 -1.0195 0.3213 0 14
1.2026 -2.8157 -1.0178 0.3219 0 14
1.3010 -2.7659 -1.0160 0.3224 0 14
1.3974 -2.7128 -1.0144 0.3230 0 14
1.4918 -2.6564 -1.0127 0.3235 0 14
1.5839 -2.5968 -1.0111 0.3240 0 14
1.6738 -2.5342 -1.0095 0.3245 0 14
1.5186 -2.1284 -0.8691 0.8024 0 19
1.5887 -2.0651 -0.8661 0.9129 0 19
1.9287 -2.3286 -1.0051 0.3260 0 14
2.0085 -2.2546 -1.0037 0.3264 0 14
2.0856 -2.1779 -1.0023 0.3268 0 14
2.1599 -2.0986 -1.0011 0.3273 0 14
2.2313 -2.0170 -0.9998 0.3277 0 14
2.2997 -1.9331 -0.9986 0.3281 0 14
2.3651 -1.8469 -0.9975 0.3284 0 8
2.4343 -1.7636 -0.9992 0.6262 0 8
2.6095 -1.7509 -1.0446 0.5798 0 8
2.8072 -1.7403 -1.0979 0.5516 0 8
2.9570 -1.6889 -1.1319 0.3298 0 7
3.0132 -1.5800 -1.1310 0.3301 0 7
3.0657 -1.4693 -1.1300 0.3303 0 7
3.1143 -1.3570 -1.1292 0.3306 0 7
3.1589 -1.2431 -1.1284 0.3308 0 6
1.5082 -0.5316 -0.5316 0.9233 47 10
1.5115 -0.4724 -0.5264 0.9324 47 10
1.5168 -0.4147 -0.5227 0.7809 47 10
1.5214 -0.3576 -0.5195 0.7857 47 10
1.5936 -0.3145 -0.5399 0.1837 47 10
1.9633 -0.3145 -0.6609 0.1501 47 10
2.1740 -0.2684 -0.7281 0.7713 47 10
3.3708 -0.2934 -1.1247 0.3319 0 7
3.3788 -0.1718 -1.1246 0.3319 0 7
3.3826 -0.0501 -1.1245 0.3319 0 7
3.3822 0.0717 -1.1245 0.3319 0 7
3.3777 0.1935 -1.1246 0.3319 0 7
3.3690 0.3150 -1.1247 0.3319 0 7
0.8772 3.1468 -1.1682 0.3411 0 7
0.7646 3.1817 -1.1702 0.3405 0 7
0.6507 3.2126 -1.1722 0.3399 0 7
0.5355 3.2395 -1.1742 0.3394 0 7
0.4193 3.2624 -1.1762 0.3388 0 7
0.3021 3.2810 -1.1783 0.3382 0 7
0.1841 3.2955 -1.1803 0.3376 0 7
0.0654 3.3058 -1.1824 0.3370 0 7
-0.0537 3.3118 -1.1845 0.3364 0 7
-0.1732 3.3136 -1.1866 0.3358 0 7
-0.2929 3.3110 -1.1887 0.3352 0 7
-0.4127 3.3041 -1.1908 0.3346 0 7
-0.5323 3.2929 -1.1928 0.3341 0 7
-0.6516 3.2773 -1.1949 0.3335 0 7
-0.7705 3.2574 -1.1970 0.3329 0 7
-0.8888 3.2331 -1.1991 0.3323 0 7
-1.0064 3.2045 -1.2011 0.3317 0 7
-1.1230 3.1715 -1.2032 0.3312 0 7
-1.2385 3.1343 -1.2052 0.3306 0 7
-1.3528 3.0928 -1.2072 0.3301 0 7
-1.4657 3.0470 -1.2091 0.3295 0 7
-1.5769 2.9971 -1.2111 0.3290 0 7
-1.6865 2.9430 -1.2130 0.3285 0 7
-1.7941 2.8848 -1.2149 0.3280 0 7
-1.8997 2.8226 -1.2167 0.3275 0 7
-0.9607 1.3220 -0.5844 0.6467 47 10
-0.9763 1.2465 -0.5662 0.5973 47 10
-0.9968 1.1824 -0.5530 0.6115 47 10
-1.0157 1.1204 -0.5408 0.6253 47 10
-1.0771 1.1054 -0.5519 0.6744 47 10
-1.1576 1.1054 -0.5724 0.6503 47 10
-1.2443 1.1054 -0.5952 0.6253 47 10
-1.3384 1.1054 -0.6208 0.5996 47 10
-1.4411 1.1054 -0.6495 0.5731 47 10
-1.5539 1.1054 -0.6819 0.5458 47 10
-1.6114 1.0610 -0.6899 0.7308 47 10
-2.9510 1.7942 -1.2351 0.3226 0 7
-3.0165 1.6884 -1.2362 0.3223 0 7
-3.0780 1.5801 -1.2373 0.3221 0 7
-3.1354 1.4694 -1.2383 0.3218 0 7
-3.1887 1.3566 -1.2392 0.3216 0 7
-3.2377 1.2418 -1.2401 0.3213 0 7
-3.2824 1.1251 -1.2408 0.3211 0 7
-3.3226 1.0068 -1.2416 0.3209 0 7
-3.3584 0.8869 -1.2422 0.3208 0 7
-3.3897 0.7658 -1.2427 0.3206 0 7
-3.4163 0.6435 -1.2432 0.3205 0 7
-3.4383 0.5202 -1.2436 0.3204 0 7
-3.4557 0.3962 -1.2439 0.3203 0 7
-3.4683 0.2716 -1.2441 0.3203 0 7
-3.4762 0.1466 -1.2442 0.3203 0 7
-3.4794 0.0213 -1.2443 0.3202 0 7
-3.4778 -0.1040 -1.2443 0.3202 0 7
-3.4715 -0.2291 -1.2441 0.3203 0 7
-3.4605 -0.3539 -1.2440 0.3203 0 7
-3.4448 -0.4781 -1.2437 0.3204 0 7
-1.5008 -0.2637 -0.5449 0.4794 47 10
-1.5056 -0.3208 -0.5505 0.4745 47 10
-1.3082 -0.3284 -0.4823 0.1353 47 10
-1.2778 -0.3701 -0.4757 0.1372 47 10
-1.2443 -0.4096 -0.4685 0.1393 47 10
-1.2262 -0.4531 -0.4675 0.4885 47 10
-1.2146 -0.4992 -0.4696 0.4863 47 10
-1.2017 -0.5453 -0.4719 0.4839 47 10
-3.0980 -1.5427 -1.2376 0.3220 0 7
-3.0379 -1.6518 -1.2366 0.3222 0 7
-2.9362 -1.7363 -1.2199 0.5300 0 8
-2.7255 -1.7472 -1.1577 0.5584 0 8
-2.5347 -1.7567 -1.1028 0.5862 0 8
-2.4209 -1.8103 -1.0810 0.3235 0 8
-2.3515 -1.8941 -1.0798 0.3239 0 8
-2.2791 -1.9752 -1.0785 0.3243 0 14
-2.2039 -2.0535 -1.0772 0.3247 0 14
-2.1258 -2.1288 -1.0759 0.3251 0 14
-2.0451 -2.2011 -1.0744 0.3255 0 14
-1.9619 -2.2702 -1.0730 0.3259 0 14
-1.8763 -2.3361 -1.0715 0.3264 0 14
-1.7884 -2.3987 -1.0700 0.3269 0 14
-1.6983 -2.4579 -1.0684 0.3273 0 14
-1.6063 -2.5137 -1.0668 0.3278 0 14
-1.2088 -2.0508 -0.8513 0.5683 0 19
-1.1264 -2.0786 -0.8454 0.9385 0 19
-1.1071 -2.2312 -0.8907 0.0642 0 19
-1.2211 -2.7011 -1.0601 0.3299 0 14
-1.1212 -2.7388 -1.0583 0.3304 0 14
-1.0202 -2.7728 -1.0566 0.3310 0 14
-0.9182 -2.8030 -1.0548 0.3316 0 14
-0.8153 -2.8294 -1.0530 0.3321 0 14
-0.7116 -2.8520 -1.0512 0.3327 0 14
-0.6075 -2.8708 -1.0494 0.3333 0 14
-0.5028 -2.8858 -1.0475 0.3339 0 14
-0.3979 -2.8969 -1.0457 0.3344 0 14
-0.2928 -2.9043 -1.0439 0.3350 0 14
-0.1877 -2.9078 -1.0420 0.3356 0 14
-0.0828 -2.9076 -1.0402 0.3362 0 14
0.0219 -2.9036 -1.0384 0.3368 0 14
0.0939 -2.1543 -0.7711 0.3970 0 19
0.1648 -2.0674 -0.7416 0.8951 0 19
0.2395 -2.0626 -0.7426 0.8260 0 19
0.4354 -2.8504 -1.0312 0.3392 0 14
0.5368 -2.8280 -1.0294 0.3397 0 14
0.6372 -2.8021 -1.0276 0.3403 0 14
0.7365 -2.7726 -1.0259 0.3409 0 14
0.8344 -2.7398 -1.0242 0.3415 0 14
0.9310 -2.7035 -1.0225 0.3420 0 14
1.0260 -2.6639 -1.0208 0.3426 0 14
1.1195 -2.6210 -1.0192 0.3431 0 14
1.2112 -2.5750 -1.0176 0.3437 0 14
1.3011 -2.5258 -1.0160 0.3442 0 14
1.3891 -2.4736 -1.0145 0.3447 0 14
1.4751 -2.4184 -1.0130 0.3452 0 14
1.5589 -2.3603 -1.0115 0.3457 0 14
1.5193 -2.1294 -0.9355 0.7958 0 19
1.5890 -2.0655 -0.9319 0.9056 0 19
1.7969 -2.1695 -1.0074 0.3472 0 14
1.8714 -2.1007 -1.0061 0.3476 0 14
1.9434 -2.0294 -1.0048 0.3480 0 14
2.0128 -1.9557 -1.0036 0.3485 0 14
2.0795 -1.8798 -1.0025 0.3489 0 8
2.1434 -1.8017 -1.0013 0.3493 0 8
2.2493 -1.7565 -1.0206 0.6335 0 8
2.4123 -1.7477 -1.0652 0.6069 0 8
2.5900 -1.7378 -1.1154 0.5797 0 8
2.7009 -1.6744 -1.1364 0.3506 0 7
2.7570 -1.5747 -1.1354 0.3509 0 7
2.8097 -1.4733 -1.1345 0.3512 0 7
2.8587 -1.3701 -1.1337 0.3515 0 7
2.9042 -1.2654 -1.1329 0.3517 0 6
2.9460 -1.1593 -1.1321 0.3520 0 7
1.4873 -0.5243 -0.5640 0.9290 47 10
1.4908 -0.4659 -0.5586 0.9380 47 10
1.4939 -0.4084 -0.5538 0.9460 47 10
1.4965 -0.3518 -0.5497 0.9531 47 10
1.5936 -0.3145 -0.5809 0.1823 47 10
1.9633 -0.3145 -0.7111 0.1489 47 10
2.1827 -0.2695 -0.7865 0.9326 47 10
3.1443 -0.2737 -1.1287 0.3530 0 7
3.1517 -0.1603 -1.1285 0.3531 0 7
3.1553 -0.0467 -1.1285 0.3531 0 7
3.1549 0.0669 -1.1285 0.3531 0 7
3.1507 0.1805 -1.1286 0.3531 0 7
3.1426 0.2938 -1.1287 0.3530 0 7
0.8193 2.9391 -1.1693 0.3622 0 7
0.7141 2.9713 -1.1711 0.3616 0 7
0.6076 2.9999 -1.1729 0.3610 0 7
0.5000 3.0246 -1.1748 0.3604 0 7
0.3914 3.0456 -1.1767 0.3599 0 7
0.2820 3.0627 -1.1786 0.3593 0 7
0.1718 3.0758 -1.1806 0.3587 0 7
0.0611 3.0851 -1.1825 0.3581 0 7
-0.0501 3.0903 -1.1844 0.3575 0 7
-0.1616 3.0916 -1.1864 0.3569 0 7
-0.2733 3.0888 -1.1883 0.3564 0 7
-0.3849 3.0820 -1.1903 0.3558 0 7
-0.4965 3.0712 -1.1922 0.3552 0 7
-0.6077 3.0563 -1.1942 0.3546 0 7
-0.7185 3.0374 -1.1961 0.3540 0 7
-0.8287 3.0144 -1.1980 0.3535 0 7
-0.9382 2.9873 -1.1999 0.3529 0 7
-1.0468 2.9563 -1.2018 0.3523 0 7
-1.1544 2.9212 -1.2037 0.3518 0 7
-1.2607 2.8822 -1.2056 0.3513 0 7
-1.3657 2.8393 -1.2074 0.3507 0 7
-1.4693 2.7924 -1.2092 0.3502 0 7
-1.5712 2.7417 -1.2110 0.3497 0 7
-1.6713 2.6873 -1.2127 0.3492 0 7
-1.7694 2.6291 -1.2144 0.3487 0 7
-0.9407 1.2945 -0.6132 0.6550 47 10
-0.9546 1.2188 -0.5933 0.6770 47 10
-0.9672 1.1473 -0.5750 0.6985 47 10
-1.0021 1.1054 -0.5718 0.6918 47 10
-1.0771 1.1054 -0.5915 0.6688 47 10
-1.1576 1.1054 -0.6134 0.6449 47 10
-1.2443 1.1054 -0.6378 0.6202 47 10
-1.3384 1.1054 -0.6652 0.5946 47 10
-1.4411 1.1054 -0.6960 0.5683 47 10
-1.5539 1.1054 -0.7308 0.5413 47 10
-1.6189 1.0660 -0.7428 0.7213 47 10
-2.7458 1.6695 -1.2315 0.3439 0 7
-2.8066 1.5709 -1.2325 0.3436 0 7
-2.8636 1.4700 -1.2335 0.3433 0 7
-2.9169 1.3670 -1.2345 0.3430 0 7
-2.9663 1.2620 -1.2353 0.3428 0 7
-3.0117 1.1551 -1.2361 0.3426 0 7
-3.0531 1.0465 -1.2368 0.3424 0 7
-3.0905 0.9364 -1.2375 0.3422 0 7
-3.1236 0.8249 -1.2381 0.3420 0 7
-3.1526 0.7122 -1.2386 0.3419 0 7
-3.1773 0.5985 -1.2390 0.3418 0 7
-3.1977 0.4838 -1.2394 0.3417 0 7
-3.2138 0.3685 -1.2397 0.3416 0 7
-3.2255 0.2526 -1.2399 0.3415 0 7
-3.2328 0.1363 -1.2400 0.3415 0 7
-3.2358 0.0198 -1.2400 0.3415 0 7
-3.2343 -0.0967 -1.2400 0.3415 0 7
-3.2285 -0.2131 -1.2399 0.3415 0 7
-3.2183 -0.3291 -1.2397 0.3416 0 7
-3.2037 -0.4447 -1.2395 0.3416 0 7
-1.5520 -0.2727 -0.6039 0.4597 47 10
-1.4760 -0.3145 -0.5783 0.1946 47 10
-1.2529 -0.3145 -0.4950 0.2274 47 10
-1.1887 -0.3444 -0.4743 0.5117 47 10
-1.1796 -0.3883 -0.4759 0.5100 47 10
-1.1694 -0.4322 -0.4778 0.5080 47 10
-1.1581 -0.4760 -0.4798 0.5058 47 10
-1.1455 -0.5198 -0.4821 0.5034 47 10
-2.8822 -1.4352 -1.2339 0.3432 0 7
-2.8264 -1.5368 -1.2329 0.3435 0 7
-2.7669 -1.6362 -1.2318 0.3438 0 7
-2.7038 -1.7332 -1.2307 0.3441 0 7
-2.5158 -1.7436 -1.1730 0.5857 0 8
-2.3438 -1.7526 -1.1215 0.6126 0 8
-2.1915 -1.7652 -1.0784 0.6582 0 8
-2.1214 -1.8385 -1.0758 0.3455 0 8
-2.0567 -1.9164 -1.0773 0.6947 0 8
-1.9790 -1.9818 -1.0733 0.3463 0 14
-1.9041 -2.0493 -1.0720 0.3467 0 14
-1.8267 -2.1138 -1.0706 0.3471 0 14
-1.7472 -2.1754 -1.0692 0.3476 0 14
-1.6655 -2.2339 -1.0678 0.3480 0 14
-1.5818 -2.2893 -1.0664 0.3485 0 14
-1.4963 -2.3415 -1.0649 0.3490 0 14
-1.2091 -2.0513 -0.9125 0.5634 0 19
-1.1262 -2.0782 -0.9058 0.9309 0 19
-1.1005 -2.2178 -0.9488 0.0640 0 19
-1.1380 -2.5172 -1.0586 0.3511 0 14
-1.0450 -2.5526 -1.0570 0.3516 0 14
-0.9509 -2.5845 -1.0553 0.3522 0 14
-0.8559 -2.6130 -1.0537 0.3527 0 14
-0.7601 -2.6379 -1.0520 0.3533 0 14
-0.6636 -2.6593 -1.0503 0.3538 0 14
-0.5665 -2.6771 -1.0486 0.3544 0 14
-0.4690 -2.6914 -1.0469 0.3550 0 14
-0.3711 -2.7021 -1.0452 0.3556 0 14
-0.2732 -2.7093 -1.0435 0.3562 0 14
-0.1752 -2.7129 -1.0418 0.3567 0 14
-0.0773 -2.7130 -1.0401 0.3573 0 14
0.0204 -2.7096 -1.0384 0.3579 0 14
0.0940 -2.1564 -0.8271 0.3933 0 19
0.1649 -2.0677 -0.7949 0.8875 0 19
0.2394 -2.0622 -0.7956 0.8193 0 19
0.4065 -2.6612 -1.0317 0.3602 0 14
0.5013 -2.6406 -1.0300 0.3608 0 14
0.5951 -2.6167 -1.0284 0.3614 0 14
0.6878 -2.5895 -1.0267 0.3620 0 14
0.7794 -2.5591 -1.0251 0.3625 0 14
0.8697 -2.5254 -1.0236 0.3631 0 14
0.9586 -2.4887 -1.0220 0.3636 0 14
1.0460 -2.4489 -1.0205 0.3642 0 14
1.1318 -2.4062 -1.0190 0.3647 0 14
1.2159 -2.3604 -1.0175 0.3653 0 14
1.2983 -2.3119 -1.0161 0.3658 0 14
1.3788 -2.2605 -1.0147 0.3663 0 14
1.4573 -2.2064 -1.0133 0.3668 0 14
1.5201 -2.1305 -1.0029 0.7888 0 19
1.5892 -2.0659 -0.9988 0.8980 0 19
1.6802 -2.0286 -1.0094 0.3682 0 14
1.7501 -1.9644 -1.0082 0.3686 0 14
1.8175 -1.8979 -1.0070 0.3691 0 8
1.8825 -1.8292 -1.0059 0.3695 0 8
1.9508 -1.7635 -1.0078 0.7043 0 8
2.0851 -1.7527 -1.0438 0.6582 0 8
2.2338 -1.7444 -1.0861 0.6326 0 8
2.3949 -1.7351 -1.1333 0.6062 0 8
2.4712 -1.6581 -1.1404 0.3713 0 7
2.5271 -1.5667 -1.1394 0.3716 0 7
2.5798 -1.4735 -1.1385 0.3719 0 7
2.6292 -1.3786 -1.1377 0.3722 0 7
2.6752 -1.2822 -1.1369 0.3725 0 6
2.7179 -1.1842 -1.1361 0.3727 0 6
2.7571 -1.0850 -1.1354 0.3730 0 7
1.4668 -0.5170 -0.5960 0.9343 47 10
1.4704 -0.4595 -0.5903 0.9432 47 10
1.4736 -0.4029 -0.5854 0.9511 47 10
1.4763 -0.3470 -0.5812 0.9581 47 10
1.5936 -0.3145 -0.6225 0.1808 47 10
1.9633 -0.3145 -0.7620 0.1477 47 10
2.1830 -0.2695 -0.8429 0.9248 47 10
2.9433 -0.2562 -1.1322 0.3740 0 7
2.9503 -0.1500 -1.1321 0.3741 0 7
2.9536 -0.0437 -1.1320 0.3741 0 7
2.9533 0.0626 -1.1320 0.3741 0 7
2.9493 0.1689 -1.1321 0.3741 0 7
2.9416 0.2750 -1.1322 0.3740 0 7
0.7677 2.7541 -1.1702 0.3831 0 7
0.6691 2.7840 -1.1719 0.3825 0 7
0.5692 2.8105 -1.1736 0.3819 0 7
0.4684 2.8334 -1.1754 0.3814 0 7
0.3666 2.8527 -1.1772 0.3808 0 7
0.2641 2.8684 -1.1789 0.3802 0 7
0.1609 2.8805 -1.1807 0.3796 0 7
0.0572 2.8888 -1.1826 0.3790 0 7
-0.0469 2.8934 -1.1844 0.3785 0 7
-0.1513 2.8943 -1.1862 0.3779 0 7
-0.2558 2.8914 -1.1880 0.3773 0 7
-0.3603 2.8848 -1.1898 0.3767 0 7
-0.4646 2.8743 -1.1917 0.3761 0 7
-0.5687 2.8601 -1.1935 0.3756 0 7
-0.6723 2.8421 -1.1953 0.3750 0 7
-0.7754 2.8203 -1.1971 0.3744 0 7
-0.8777 2.7947 -1.1989 0.3739 0 7
-0.9792 2.7653 -1.2006 0.3733 0 7
-1.0797 2.7323 -1.2024 0.3728 0 7
-1.1791 2.6955 -1.2041 0.3722 0 7
-1.2772 2.6551 -1.2058 0.3717 0 7
-1.3738 2.6110 -1.2075 0.3712 0 7
-1.4690 2.5634 -1.2092 0.3707 0 7
-1.5624 2.5122 -1.2108 0.3702 0 7
-0.9056 1.3456 -0.6638 0.6405 47 10
-0.9212 1.2677 -0.6414 0.6629 47 10
-0.9354 1.1943 -0.6209 0.6848 47 10
-0.9484 1.1250 -0.6022 0.7060 47 10
-1.0021 1.1054 -0.6106 0.6857 47 10
-1.0771 1.1054 -0.6317 0.6628 47 10
-1.1576 1.1054 -0.6551 0.6392 47 10
-1.2443 1.1054 -0.6812 0.6146 47 10
-1.3384 1.1054 -0.7105 0.5893 47 10
-1.4411 1.1054 -0.7433 0.5633 47 10
-1.5539 1.1054 -0.7805 0.5365 47 10
-1.6267 1.0711 -0.7971 0.7115 47 10
-2.5644 1.5592 -1.2283 0.3649 0 7
-2.6210 1.4670 -1.2293 0.3646 0 7
-2.6741 1.3727 -1.2302 0.3644 0 7
-2.7237 1.2765 -1.2311 0.3641 0 7
-2.7697 1.1783 -1.2319 0.3639 0 7
-2.8120 1.0785 -1.2326 0.3636 0 7
-2.8506 0.9771 -1.2333 0.3634 0 7
-2.8853 0.8743 -1.2339 0.3633 0 7
-2.9162 0.7701 -1.2345 0.3631 0 7
-2.9432 0.6649 -1.2349 0.3630 0 7
-2.9662 0.5587 -1.2353 0.3628 0 7
-2.9852 0.4517 -1.2357 0.3628 0 7
-3.0001 0.3440 -1.2359 0.3627 0 7
-3.0110 0.2358 -1.2361 0.3626 0 7
-3.0179 0.1272 -1.2362 0.3626 0 7
-3.0206 0.0185 -1.2363 0.3626 0 7
-3.0192 -0.0903 -1.2363 0.3626 0 7
-3.0138 -0.1989 -1.2362 0.3626 0 7
-3.0043 -0.3072 -1.2360 0.3627 0 7
-2.9907 -0.4151 -1.2358 0.3627 0 7
-1.6078 -0.2825 -0.6681 0.4398 47 10
-1.4760 -0.3145 -0.6177 0.1929 47 10
-1.2529 -0.3145 -0.5287 0.2253 47 10
-1.1356 -0.3290 -0.4839 0.5309 47 10
-1.1267 -0.3709 -0.4855 0.5292 47 10
-1.1168 -0.4127 -0.4873 0.5272 47 10
-1.1057 -0.4545 -0.4893 0.5251 47 10
-1.0935 -0.4962 -0.4915 0.5227 47 10
-1.0852 -0.5404 -0.4962 0.7667 47 10
-2.6394 -1.4352 -1.2296 0.3645 0 7
-2.5840 -1.5281 -1.2287 0.3648 0 7
-2.5252 -1.6188 -1.2276 0.3651 0 7
-2.4631 -1.7071 -1.2265 0.3654 0 7
-2.3270 -1.7400 -1.1892 0.6116 0 8
-2.1707 -1.7485 -1.1408 0.6375 0 8
-2.0262 -1.7561 -1.0974 0.6627 0 8
-1.9167 -1.7859 -1.0722 0.3669 0 8
-1.8491 -1.8517 -1.0710 0.3673 0 8
-1.7817 -1.9176 -1.0713 0.7394 0 8
-1.7071 -1.9754 -1.0685 0.3682 0 14
-1.6329 -2.0331 -1.0673 0.3686 0 14
-1.5567 -2.0880 -1.0659 0.3691 0 14
-1.4786 -2.1399 -1.0646 0.3695 0 14
-1.3988 -2.1889 -1.0632 0.3700 0 14
-1.2095 -2.0519 -0.9748 0.5582 0 19
-1.1260 -2.0779 -0.9673 0.9227 0 19
-1.0938 -2.2044 -1.0071 0.0639 0 19
-1.0642 -2.3540 -1.0573 0.3721 0 14
-0.9774 -2.3874 -1.0558 0.3726 0 14
-0.8895 -2.4175 -1.0543 0.3731 0 14
-0.8007 -2.4444 -1.0527 0.3737 0 14
-0.7111 -2.4679 -1.0512 0.3742 0 14
-0.6209 -2.4882 -1.0496 0.3748 0 14
-0.5301 -2.5052 -1.0480 0.3754 0 14
-0.4389 -2.5188 -1.0464 0.3759 0 14
-0.3474 -2.5291 -1.0448 0.3765 0 14
-0.2557 -2.5361 -1.0432 0.3771 0 14
-0.1640 -2.5397 -1.0416 0.3777 0 14
-0.0723 -2.5401 -1.0400 0.3783 0 14
0.0191 -2.5371 -1.0384 0.3788 0 14
0.0941 -2.1585 -0.8843 0.3895 0 19
0.1649 -2.0681 -0.8491 0.8795 0 19
0.2394 -2.0618 -0.8495 0.8121 0 19
0.3808 -2.4929 -1.0321 0.3812 0 14
0.4696 -2.4738 -1.0306 0.3817 0 14
0.5575 -2.4517 -1.0290 0.3823 0 14
0.6445 -2.4264 -1.0275 0.3829 0 14
0.7304 -2.3981 -1.0260 0.3834 0 14
0.8150 -2.3669 -1.0245 0.3840 0 14
0.8984 -2.3327 -1.0231 0.3845 0 14
0.9805 -2.2956 -1.0216 0.3851 0 14
1.0610 -2.2557 -1.0202 0.3856 0 14
1.1400 -2.2130 -1.0189 0.3861 0 14
1.2173 -2.1677 -1.0175 0.3866 0 14
1.2929 -2.1197 -1.0162 0.3871 0 14
1.3666 -2.0692 -1.0149 0.3876 0 14
1.4385 -2.0161 -1.0136 0.3881 0 14
1.5083 -1.9607 -1.0124 0.3886 0 14
1.5761 -1.9029 -1.0112 0.3890 0 8
1.6417 -1.8428 -1.0101 0.3895 0 8
1.7051 -1.7805 -1.0090 0.3899 0 8
1.8071 -1.7559 -1.0313 0.7052 0 8
1.9346 -1.7488 -1.0673 0.6814 0 8
2.0712 -1.7410 -1.1074 0.6568 0 8
2.2051 -1.7220 -1.1451 0.3915 0 7
2.2636 -1.6400 -1.1440 0.3918 0 7
2.3192 -1.5561 -1.1431 0.3921 0 7
2.3719 -1.4704 -1.1422 0.3924 0 7
2.4214 -1.3830 -1.1413 0.3927 0 7
2.4679 -1.2940 -1.1405 0.3930 0 6
2.5112 -1.2036 -1.1397 0.3933 0 6
2.5514 -1.1117 -1.1390 0.3935 0 7
2.5883 -1.0185 -1.1384 0.3938 0 7
1.4464 -0.5098 -0.6277 0.9390 47 10
1.4501 -0.4532 -0.6218 0.9478 47 10
1.4534 -0.3974 -0.6167 0.9557 47 10
1.4563 -0.3423 -0.6123 0.9626 47 10
1.5936 -0.3145 -0.6648 0.1792 47 10
1.9633 -0.3145 -0.8138 0.1464 47 10
2.1833 -0.2695 -0.9004 0.9164 47 10
2.7635 -0.2405 -1.1353 0.3948 0 7
2.7701 -0.1409 -1.1352 0.3949 0 7
2.7733 -0.0411 -1.1351 0.3949 0 7
2.7729 0.0588 -1.1352 0.3949 0 7
2.7692 0.1586 -1.1352 0.3948 0 7
2.7620 0.2582 -1.1353 0.3948 0 7
0.7215 2.5881 -1.1710 0.4038 0 7
0.6287 2.6160 -1.1726 0.4032 0 7
0.5349 2.6407 -1.1742 0.4026 0 7
0.4401 2.6620 -1.1759 0.4021 0 7
0.3444 2.6799 -1.1775 0.4015 0 7
0.2481 2.6944 -1.1792 0.4009 0 7
0.1511 2.7054 -1.1809 0.4004 0 7
0.0537 2.7130 -1.1826 0.3998 0 7
-0.0441 2.7171 -1.1843 0.3992 0 7
-0.1421 2.7177 -1.1860 0.3986 0 7
-0.2402 2.7147 -1.1877 0.3981 0 7
-0.3382 2.7082 -1.1895 0.3975 0 7
-0.4362 2.6982 -1.1912 0.3969 0 7
-0.5338 2.6845 -1.1929 0.3963 0 7
-0.6310 2.6674 -1.1946 0.3958 0 7
-0.7276 2.6467 -1.1963 0.3952 0 7
-0.8236 2.6224 -1.1979 0.3947 0 7
-0.9187 2.5946 -1.1996 0.3941 0 7
-1.0130 2.5634 -1.2012 0.3936 0 7
-1.1061 2.5287 -1.2029 0.3931 0 7
-1.1980 2.4905 -1.2045 0.3925 0 7
-1.2886 2.4490 -1.2060 0.3920 0 7
-1.3777 2.4041 -1.2076 0.3915 0 7
-1.4652 2.3559 -1.2091 0.3910 0 7
-0.8878 1.3191 -0.6930 0.5850 47 10
-0.9021 1.2415 -0.6688 0.6705 47 10
-0.9166 1.1704 -0.6479 0.6922 47 10
-0.9318 1.1054 -0.6301 0.7009 47 10
-1.0021 1.1054 -0.6502 0.6792 47 10
-1.0771 1.1054 -0.6726 0.6566 47 10
-1.1576 1.1054 -0.6976 0.6331 47 10
-1.2443 1.1054 -0.7254 0.6088 47 10
-1.3384 1.1054 -0.7565 0.5838 47 10
-1.4411 1.1054 -0.7915 0.5579 47 10
-1.5539 1.1054 -0.8311 0.5314 47 10
-1.6347 1.0764 -0.8530 0.7013 47 10
-2.4027 1.4608 -1.2255 0.3858 0 7
-2.4556 1.3744 -1.2264 0.3855 0 7
-2.5052 1.2860 -1.2273 0.3852 0 7
-2.5516 1.1958 -1.2281 0.3850 0 7
-2.5946 1.1038 -1.2288 0.3847 0 7
-2.6341 1.0103 -1.2295 0.3845 0 7
-2.6702 0.9152 -1.2302 0.3843 0 7
-2.7026 0.8189 -1.2307 0.3842 0 7
-2.7315 0.7214 -1.2312 0.3840 0 7
-2.7566 0.6228 -1.2317 0.3839 0 7
-2.7781 0.5233 -1.2320 0.3837 0 7
-2.7959 0.4230 -1.2324 0.3836 0 7
-2.8098 0.3222 -1.2326 0.3836 0 7
-2.8200 0.2208 -1.2328 0.3835 0 7
-2.8264 0.1192 -1.2329 0.3835 0 7
-2.8290 0.0173 -1.2329 0.3835 0 7
-2.8277 -0.0845 -1.2329 0.3835 0 7
-2.8226 -0.1863 -1.2328 0.3835 0 7
-2.8137 -0.2877 -1.2327 0.3835 0 7
-2.8010 -0.3888 -1.2324 0.3836 0 7
-1.6149 -0.2837 -0.7146 0.8372 47 10
-1.4760 -0.3145 -0.6577 0.1910 47 10
-1.2529 -0.3145 -0.5630 0.2232 47 10
-1.0886 -0.3154 -0.4939 0.8124 47 10
-1.0836 -0.3567 -0.4972 0.8071 47 10
-1.0779 -0.3983 -0.5008 0.8012 47 10
-1.0716 -0.4405 -0.5049 0.7947 47 10
-1.0645 -0.4831 -0.5095 0.7876 47 10
-1.0567 -0.5262 -0.5145 0.7799 47 10
-2.4728 -1.3446 -1.2267 0.3854 0 7
-2.4210 -1.4317 -1.2258 0.3857 0 7
-2.3661 -1.5167 -1.2249 0.3860 0 7
-2.3080 -1.5996 -1.2238 0.3863 0 7
-2.2470 -1.6802 -1.2228 0.3866 0 7
-2.1556 -1.7363 -1.2063 0.6359 0 8
-2.0127 -1.7443 -1.1607 0.6609 0 8
-1.8797 -1.7515 -1.1197 0.6851 0 8
-1.7554 -1.7579 -1.0827 0.7085 0 8
-1.6678 -1.7950 -1.0679 0.3886 0 8
-1.6003 -1.8519 -1.0667 0.3890 0 8
-1.5376 -1.9144 -1.0701 0.7808 0 8
-1.4596 -1.9577 -1.0642 0.3899 0 14
-1.3865 -2.0066 -1.0630 0.3904 0 14
-1.3117 -2.0527 -1.0616 0.3908 0 14
-1.2098 -2.0525 -1.0383 0.5528 0 19
-1.1258 -2.0775 -1.0298 0.9142 0 19
-1.0786 -2.1738 -1.0576 0.3924 0 14
-0.9983 -2.2083 -1.0562 0.3929 0 14
-0.9169 -2.2398 -1.0548 0.3934 0 14
-0.8346 -2.2682 -1.0533 0.3939 0 14
-0.7513 -2.2936 -1.0519 0.3945 0 14
-0.6673 -2.3160 -1.0504 0.3950 0 14
-0.5827 -2.3352 -1.0489 0.3956 0 14
-0.4975 -2.3513 -1.0474 0.3962 0 14
-0.4120 -2.3643 -1.0459 0.3967 0 14
-0.3261 -2.3742 -1.0444 0.3973 0 14
-0.2401 -2.3810 -1.0429 0.3979 0 14
-0.1540 -2.3847 -1.0414 0.3984 0 14
-0.0679 -2.3852 -1.0399 0.3990 0 14
0.0180 -2.3827 -1.0384 0.3996 0 14
0.0942 -2.1607 -0.9426 0.3854 0 19
0.1649 -2.0685 -0.9043 0.8710 0 19
0.2393 -2.0614 -0.9044 0.8046 0 19
0.3308 -2.1658 -0.9548 0.2276 0 19
0.4412 -2.3243 -1.0310 0.4024 0 14
0.5239 -2.3037 -1.0296 0.4030 0 14
0.6056 -2.2801 -1.0282 0.4036 0 14
0.6864 -2.2538 -1.0268 0.4041 0 14
0.7660 -2.2246 -1.0254 0.4047 0 14
0.8445 -2.1926 -1.0240 0.4052 0 14
0.9217 -2.1580 -1.0227 0.4057 0 14
0.9975 -2.1206 -1.0213 0.4063 0 14
1.0718 -2.0807 -1.0200 0.4068 0 14
1.1446 -2.0382 -1.0188 0.4073 0 14
1.2158 -1.9932 -1.0175 0.4078 0 14
1.2852 -1.9459 -1.0163 0.4083 0 14
1.3529 -1.8961 -1.0151 0.4088 0 8
1.4187 -1.8441 -1.0140 0.4092 0 8
1.4825 -1.7899 -1.0129 0.4097 0 8
1.5659 -1.7577 -1.0259 0.7477 0 8
1.6774 -1.7516 -1.0570 0.7258 0 8
1.7958 -1.7449 -1.0912 0.7030 0 8
1.9220 -1.7374 -1.1291 0.6794 0 8
2.0170 -1.6955 -1.1483 0.4117 0 7
2.0749 -1.6203 -1.1473 0.4121 0 7
2.1301 -1.5433 -1.1464 0.4124 0 7
2.1825 -1.4644 -1.1455 0.4127 0 7
2.2322 -1.3838 -1.1446 0.4131 0 7
2.2789 -1.3016 -1.1438 0.4134 0 7
2.3227 -1.2179 -1.1430 0.4136 0 6
2.3636 -1.1328 -1.1423 0.4139 0 7
2.4015 -1.0464 -1.1416 0.4141 0 7
2.4363 -0.9587 -1.1410 0.4144 0 7
1.4312 -0.5045 -0.6613 0.9219 47 10
1.4325 -0.4477 -0.6541 0.9321 47 10
1.4336 -0.3920 -0.6477 0.9413 47 10
1.4365 -0.3376 -0.6431 0.9667 47 10
1.5936 -0.3145 -0.7079 0.1775 47 10
1.9633 -0.3145 -0.8666 0.1450 47 10
2.5922 -0.3200 -1.1383 0.4153 0 7
2.6017 -0.2265 -1.1381 0.4154 0 7
2.6079 -0.1326 -1.1380 0.4154 0 7
2.6109 -0.0387 -1.1380 0.4155 0 7
2.6106 0.0554 -1.1380 0.4155 0 7
2.6070 0.1493 -1.1380 0.4154 0 7
2.6002 0.2431 -1.1382 0.4154 0 7
0.6797 2.4383 -1.1717 0.4243 0 7
0.5923 2.4644 -1.1732 0.4237 0 7
0.5038 2.4874 -1.1748 0.4231 0 7
0.4145 2.5072 -1.1763 0.4226 0 7
0.3244 2.5239 -1.1779 0.4220 0 7
0.2336 2.5374 -1.1795 0.4215 0 7
0.1423 2.5476 -1.1811 0.4209 0 7
0.0506 2.5545 -1.1827 0.4203 0 7
-0.0415 2.5581 -1.1843 0.4197 0 7
-0.1338 2.5585 -1.1859 0.4192 0 7
-0.2261 2.5554 -1.1875 0.4186 0 7
-0.3184 2.5491 -1.1891 0.4180 0 7
-0.4105 2.5394 -1.1907 0.4175 0 7
-0.5023 2.5264 -1.1923 0.4169 0 7
-0.5938 2.5100 -1.1939 0.4164 0 7
-0.6847 2.4903 -1.1955 0.4158 0 7
-0.7749 2.4673 -1.1971 0.4153 0 7
-0.8643 2.4410 -1.1986 0.4147 0 7
-0.9529 2.4114 -1.2002 0.4142 0 7
-1.0404 2.3785 -1.2017 0.4137 0 7
-1.1268 2.3425 -1.2032 0.4131 0 7
-1.2119 2.3032 -1.2047 0.4126 0 7
-1.2956 2.2609 -1.2062 0.4121 0 7
-1.3778 2.2154 -1.2076 0.4116 0 7
-0.8799 1.3073 -0.7294 0.5843 47 10
-0.8867 1.2202 -0.6982 0.6105 47 10
-0.8983 1.1470 -0.6744 0.6992 47 10
-0.9318 1.1054 -0.6692 0.6938 47 10
-1.0021 1.1054 -0.6906 0.6723 47 10
-1.0771 1.1054 -0.7144 0.6500 47 10
-1.1576 1.1054 -0.7409 0.6267 47 10
-1.2443 1.1054 -0.7704 0.6027 47 10
-1.3384 1.1054 -0.8035 0.5779 47 10
-1.4411 1.1054 -0.8407 0.5523 47 10
-1.5539 1.1054 -0.8827 0.5260 47 10
-1.6429 1.0818 -0.9105 0.6908 47 10
-2.2575 1.3726 -1.2230 0.4065 0 7
-2.3071 1.2913 -1.2238 0.4062 0 7
-2.3537 1.2082 -1.2246 0.4059 0 7
-2.3971 1.1234 -1.2254 0.4057 0 7
-2.4374 1.0370 -1.2261 0.4054 0 7
-2.4745 0.9490 -1.2267 0.4052 0 7
-2.5082 0.8597 -1.2273 0.4050 0 7
-2.5387 0.7692 -1.2279 0.4048 0 7
-2.5657 0.6776 -1.2283 0.4047 0 7
-2.5893 0.5850 -1.2287 0.4046 0 7
-2.6094 0.4915 -1.2291 0.4044 0 7
-2.6260 0.3973 -1.2294 0.4043 0 7
-2.6391 0.3026 -1.2296 0.4043 0 7
-2.6487 0.2074 -1.2298 0.4042 0 7
-2.6547 0.1119 -1.2299 0.4042 0 7
-2.6571 0.0163 -1.2299 0.4042 0 7
-2.6559 -0.0794 -1.2299 0.4042 0 7
-2.6511 -0.1750 -1.2298 0.4042 0 7
-2.6428 -0.2703 -1.2297 0.4042 0 7
-2.6309 -0.3652 -1.2295 0.4043 0 7
-1.6217 -0.2849 -0.7622 0.8253 47 10
-1.4760 -0.3145 -0.6986 0.1891 47 10
-1.2529 -0.3145 -0.5979 0.2210 47 10
-1.0857 -0.3145 -0.5232 0.2525 47 10
-1.0563 -0.3477 -0.5147 0.8196 47 10
-1.0506 -0.3882 -0.5184 0.8138 47 10
-1.0441 -0.4292 -0.5226 0.8074 47 10
-1.0370 -0.4706 -0.5271 0.8003 47 10
-1.0292 -0.5125 -0.5322 0.7928 47 10
-1.0206 -0.5549 -0.5377 0.7846 47 10
-2.2747 -1.3452 -1.2233 0.4064 0 7
-2.2232 -1.4251 -1.2224 0.4067 0 7
-2.1687 -1.5031 -1.2214 0.4070 0 7
-2.1115 -1.5789 -1.2204 0.4073 0 7
-2.0515 -1.6525 -1.2194 0.4077 0 7
-1.9889 -1.7237 -1.2183 0.4080 0 7
-1.8674 -1.7400 -1.1815 0.6827 0 8
-1.7443 -1.7468 -1.1427 0.7059 0 8
-1.6287 -1.7529 -1.1076 0.7282 0 8
-1.5196 -1.7584 -1.0758 0.7497 0 8
-1.4392 -1.7920 -1.0639 0.4101 0 8
-1.3722 -1.8406 -1.0627 0.4105 0 8
-1.3036 -1.8867 -1.0615 0.4110 0 8
-1.2334 -1.9301 -1.0603 0.4115 0 14
-1.1618 -1.9710 -1.0590 0.4120 0 14
-1.0887 -2.0091 -1.0578 0.4125 0 14
-1.0144 -2.0445 -1.0565 0.4130 0 14
-0.9390 -2.0771 -1.0551 0.4135 0 14
-0.8625 -2.1069 -1.0538 0.4140 0 14
-0.7851 -2.1338 -1.0525 0.4145 0 14
-0.7069 -2.1579 -1.0511 0.4151 0 14
-0.6279 -2.1791 -1.0497 0.4156 0 14
-0.5483 -2.1974 -1.0483 0.4162 0 14
-0.4682 -2.2127 -1.0469 0.4167 0 14
-0.3877 -2.2252 -1.0455 0.4173 0 14
-0.3069 -2.2347 -1.0441 0.4178 0 14
-0.2260 -2.2412 -1.0427 0.4184 0 14
-0.1449 -2.2449 -1.0413 0.4190 0 14
-0.0639 -2.2456 -1.0399 0.4196 0 14
0.0169 -2.2434 -1.0385 0.4201 0 14
0.0943 -2.1629 -1.0021 0.3811 0 19
0.1650 -2.0689 -0.9607 0.8621 0 19
0.2393 -2.0610 -0.9604 0.7967 0 19
0.3303 -2.1620 -1.0124 0.2257 0 19
0.4156 -2.1893 -1.0315 0.4230 0 14
0.4935 -2.1701 -1.0301 0.4235 0 14
0.5706 -2.1481 -1.0288 0.4241 0 14
0.6467 -2.1234 -1.0275 0.4246 0 14
0.7218 -2.0961 -1.0262 0.4252 0 14
0.7958 -2.0661 -1.0249 0.4257 0 14
0.8686 -2.0336 -1.0236 0.4262 0 14
0.9401 -1.9986 -1.0223 0.4267 0 14
1.0102 -1.9611 -1.0211 0.4273 0 14
1.0789 -1.9212 -1.0199 0.4278 0 14
1.1461 -1.8789 -1.0187 0.4282 0 8
1.2116 -1.8344 -1.0176 0.4287 0 8
1.2755 -1.7876 -1.0165 0.4292 0 8
1.3526 -1.7582 -1.0268 0.7855 0 8
1.4519 -1.7529 -1.0536 0.7655 0 8
1.5565 -1.7471 -1.0831 0.7447 0 8
1.6670 -1.7408 -1.1157 0.7229 0 8
1.7843 -1.7337 -1.1516 0.7004 0 8
1.8452 -1.6680 -1.1513 0.4317 0 7
1.9024 -1.5991 -1.1503 0.4321 0 7
1.9571 -1.5283 -1.1494 0.4325 0 7
2.0092 -1.4557 -1.1485 0.4328 0 7
2.0588 -1.3814 -1.1476 0.4332 0 7
