ply
format ascii 1.0
element vertex 1382
property float32 x
property float32 y
property float32 z
property float32 CosAngle
property uint32 ObjIdx
property uint32 ObjTag
end_header
2.2581 -3.6028 -0.9993 0.2378 0 14
2.3806 -3.5120 -0.9972 0.2383 0 14
1.5297 -2.0913 -0.6090 0.8306 0 19
1.6168 -2.0519 -0.6140 0.9340 0 19
2.7270 -3.2168 -0.9911 0.2397 0 14
2.8350 -3.1111 -0.9892 0.2402 0 14
2.9392 -3.0020 -0.9874 0.2406 0 14
3.0395 -2.8897 -0.9857 0.2411 0 14
3.1357 -2.7742 -0.9840 0.2415 0 14
3.2278 -2.6558 -0.9824 0.2419 0 14
2.9447 -2.2509 -0.8711 0.4824 0 19
2.9467 -2.0896 -0.8490 0.9465 0 19
3.4785 -2.2840 -0.9780 0.2430 0 14
3.5533 -2.1550 -0.9767 0.2433 0 14
3.6236 -2.0238 -0.9755 0.2436 0 14
3.6895 -1.8905 -0.9743 0.2439 0 8
3.7660 -1.7623 -0.9772 0.4644 0 8
4.1066 -1.7453 -1.0487 0.4189 0 8
4.3972 -1.6855 -1.1068 0.2446 0 7
4.4510 -1.5256 -1.1058 0.2448 0 7
1.7249 -0.5230 -0.4236 0.4212 47 10
1.7342 -0.4587 -0.4216 0.4233 47 10
1.7423 -0.3946 -0.4198 0.4250 47 10
1.7491 -0.3308 -0.4184 0.4265 47 10
2.0266 -0.3085 -0.4818 0.5538 47 10
4.6586 -0.5393 -1.1022 0.2456 0 7
4.6738 -0.3720 -1.1019 0.2457 0 7
4.6834 -0.2043 -1.1018 0.2457 0 7
4.6875 -0.0364 -1.1017 0.2457 0 7
4.6859 0.1316 -1.1017 0.2457 0 7
4.6787 0.2993 -1.1018 0.2457 0 7
4.6659 0.4668 -1.1021 0.2457 0 7
4.6475 0.6339 -1.1024 0.2456 0 7
4.6236 0.8002 -1.1028 0.2455 0 7
4.5941 0.9658 -1.1033 0.2454 0 7
4.5591 1.1304 -1.1039 0.2452 0 7
4.5186 1.2938 -1.1046 0.2451 0 7
4.4726 1.4558 -1.1054 0.2449 0 7
4.4212 1.6164 -1.1063 0.2447 0 7
4.3643 1.7753 -1.1073 0.2445 0 7
4.3022 1.9324 -1.1084 0.2443 0 7
4.2347 2.0875 -1.1096 0.2440 0 7
2.0534 1.1054 -0.5481 0.4614 47 10
1.8881 1.1054 -0.5142 0.4918 47 10
1.7418 1.1054 -0.4848 0.5216 47 10
1.6112 1.1054 -0.4592 0.5507 47 10
1.5971 1.1820 -0.4670 0.6340 47 10
1.5840 1.2626 -0.4761 0.6219 47 10
1.5697 1.3459 -0.4860 0.6092 47 10
3.5113 3.2360 -1.1222 0.2412 0 7
3.3990 3.3655 -1.1242 0.2408 0 7
3.2822 3.4914 -1.1262 0.2404 0 7
3.1610 3.6135 -1.1283 0.2399 0 7
3.0354 3.7317 -1.1305 0.2395 0 7
2.9056 3.8457 -1.1328 0.2390 0 7
2.7717 3.9555 -1.1351 0.2385 0 7
2.6338 4.0608 -1.1375 0.2380 0 7
2.4921 4.1616 -1.1400 0.2375 0 7
2.3466 4.2576 -1.1426 0.2370 0 7
2.1976 4.3488 -1.1452 0.2364 0 7
2.0451 4.4350 -1.1478 0.2359 0 7
1.8894 4.5161 -1.1505 0.2353 0 7
1.7306 4.5919 -1.1533 0.2347 0 7
1.5689 4.6624 -1.1561 0.2342 0 7
1.4043 4.7273 -1.1590 0.2336 0 7
1.2372 4.7866 -1.1619 0.2330 0 7
1.0677 4.8401 -1.1649 0.2324 0 7
0.8959 4.8878 -1.1679 0.2318 0 7
0.7221 4.9295 -1.1709 0.2312 0 7
0.5465 4.9652 -1.1740 0.2306 0 7
0.3693 4.9947 -1.1771 0.2300 0 7
0.1906 5.0180 -1.1802 0.2294 0 7
-4.0172 2.7028 -1.2536 0.2366 0 7
-4.1172 2.5607 -1.2554 0.2363 0 7
-4.2118 2.4148 -1.2570 0.2360 0 7
-4.3009 2.2652 -1.2586 0.2357 0 6
-4.3844 2.1121 -1.2600 0.2354 0 7
-4.4620 1.9558 -1.2614 0.2351 0 7
-4.5337 1.7965 -1.2627 0.2349 0 7
-4.5993 1.6344 -1.2638 0.2347 0 7
-4.6587 1.4698 -1.2648 0.2345 0 7
-4.7118 1.3030 -1.2658 0.2343 0 7
-4.7585 1.1341 -1.2666 0.2342 0 7
-4.7988 0.9634 -1.2673 0.2340 0 7
-4.8324 0.7913 -1.2679 0.2339 0 7
-4.8595 0.6179 -1.2683 0.2339 0 7
-4.8799 0.4436 -1.2687 0.2338 0 7
-4.8935 0.2686 -1.2689 0.2337 0 7
-4.9005 0.0931 -1.2691 0.2337 0 7
-4.9007 -0.0825 -1.2691 0.2337 0 7
-4.8942 -0.2579 -1.2689 0.2337 0 7
-4.8809 -0.4330 -1.2687 0.2338 0 7
-4.8609 -0.6074 -1.2684 0.2338 0 7
-4.8342 -0.7808 -1.2679 0.2339 0 7
-4.8010 -0.9531 -1.2673 0.2340 0 7
-4.7611 -1.1238 -1.2666 0.2342 0 7
-4.7148 -1.2928 -1.2658 0.2343 0 6
-4.6621 -1.4598 -1.2649 0.2345 0 7
-4.6031 -1.6245 -1.2639 0.2347 0 7
-4.4175 -1.7394 -1.2292 0.3915 0 8
-4.0278 -1.7551 -1.1376 0.4231 0 8
-3.8522 -1.8455 -1.1060 0.2354 0 8
-3.7793 -1.9800 -1.1047 0.2356 0 14
-3.7014 -2.1115 -1.1033 0.2359 0 14
-3.6186 -2.2398 -1.1019 0.2362 0 14
-3.5312 -2.3647 -1.1004 0.2366 0 14
-3.4392 -2.4860 -1.0987 0.2369 0 14
-2.6420 -2.0578 -0.8671 0.2607 0 19
-2.5158 -2.1085 -0.8499 0.9281 0 19
-3.1375 -2.8270 -1.0935 0.2381 0 14
-3.0290 -2.9325 -1.0916 0.2385 0 14
-2.9168 -3.0336 -1.0896 0.2389 0 14
-2.8010 -3.1304 -1.0876 0.2393 0 14
-2.6820 -3.2225 -1.0855 0.2398 0 14
-2.5598 -3.3100 -1.0834 0.2403 0 14
-2.4346 -3.3927 -1.0812 0.2408 0 14
-2.3068 -3.4706 -1.0790 0.2413 0 14
-1.2753 -2.0763 -0.6309 0.5708 0 19
-1.1676 -2.0633 -0.6138 0.9622 0 19
-1.1032 -2.1234 -0.6196 0.7466 0 19
-1.7720 -3.7319 -1.0696 0.2434 0 14
-1.6335 -3.7844 -1.0672 0.2439 0 14
-1.4935 -3.8317 -1.0648 0.2445 0 14
-1.3521 -3.8737 -1.0623 0.2450 0 14
-1.2097 -3.9105 -1.0598 0.2456 0 14
-1.0663 -3.9420 -1.0573 0.2462 0 14
-0.9222 -3.9682 -1.0548 0.2468 0 14
-0.7776 -3.9891 -1.0523 0.2474 0 14
-0.6327 -4.0047 -1.0498 0.2480 0 14
-0.4877 -4.0151 -1.0472 0.2486 0 14
-0.3427 -4.0203 -1.0447 0.2492 0 14
-0.1980 -4.0202 -1.0422 0.2498 0 14
-0.0537 -4.0150 -1.0397 0.2504 0 14
0.0899 -4.0047 -1.0371 0.2510 0 14
0.1216 -2.0836 -0.5404 0.9145 0 19
0.1939 -2.0540 -0.5342 0.9251 0 19
0.2714 -2.0772 -0.5424 0.8417 0 19
0.6547 -3.9132 -1.0273 0.2534 0 14
0.7235 -3.5404 -0.9356 0.9500 0 5
0.9288 -3.8384 -1.0225 0.2546 0 14
1.0632 -3.7939 -1.0202 0.2552 0 14
1.1957 -3.7449 -1.0178 0.2558 0 14
1.3261 -3.6914 -1.0156 0.2563 0 14
1.4543 -3.6335 -1.0133 0.2569 0 14
1.5801 -3.5713 -1.0111 0.2575 0 14
1.7034 -3.5049 -1.0090 0.2580 0 14
1.8240 -3.4345 -1.0069 0.2585 0 14
1.9419 -3.3601 -1.0048 0.2591 0 14
2.0569 -3.2818 -1.0028 0.2596 0 14
2.1689 -3.1997 -1.0009 0.2601 0 14
1.5304 -2.0923 -0.6712 0.8256 0 19
1.6170 -2.0522 -0.6765 0.9287 0 19
2.4858 -2.9323 -0.9953 0.2615 0 14
2.5847 -2.8365 -0.9936 0.2620 0 14
2.6802 -2.7375 -0.9919 0.2624 0 14
2.7720 -2.6354 -0.9903 0.2629 0 14
2.8602 -2.5305 -0.9888 0.2633 0 14
2.9446 -2.4228 -0.9873 0.2637 0 14
2.9470 -2.2527 -0.9604 0.4793 0 19
2.9479 -2.0905 -0.9357 0.9409 0 19
3.1746 -2.0844 -0.9833 0.2647 0 14
3.2432 -1.9670 -0.9821 0.2651 0 14
3.3078 -1.8474 -0.9810 0.2654 0 8
3.4288 -1.7569 -0.9975 0.4825 0 8
3.7256 -1.7435 -1.0650 0.4519 0 8
3.9611 -1.6834 -1.1144 0.2662 0 7
4.0154 -1.5392 -1.1134 0.2664 0 7
1.6279 -0.5580 -0.4456 0.7279 47 10
1.6366 -0.4962 -0.4428 0.4415 47 10
1.6458 -0.4353 -0.4408 0.4435 47 10
1.6538 -0.3746 -0.4390 0.4453 47 10
1.6632 -0.3145 -0.4383 0.1799 47 10
2.0858 -0.3175 -0.5463 0.5351 47 10
4.2557 -0.4926 -1.1092 0.2674 0 7
4.2697 -0.3398 -1.1090 0.2675 0 7
4.2785 -0.1866 -1.1088 0.2675 0 7
4.2822 -0.0332 -1.1088 0.2675 0 7
4.2807 0.1202 -1.1088 0.2675 0 7
4.2741 0.2735 -1.1089 0.2675 0 7
4.2624 0.4265 -1.1091 0.2674 0 7
4.2455 0.5790 -1.1094 0.2674 0 7
4.2235 0.7310 -1.1098 0.2673 0 7
4.1964 0.8822 -1.1103 0.2671 0 7
4.1642 1.0324 -1.1108 0.2670 0 7
4.1270 1.1816 -1.1115 0.2669 0 7
4.0847 1.3296 -1.1122 0.2667 0 7
4.0374 1.4761 -1.1130 0.2665 0 7
3.9852 1.6211 -1.1140 0.2663 0 7
3.9281 1.7644 -1.1149 0.2660 0 7
2.1318 1.0509 -0.6154 0.7252 47 10
2.0534 1.1054 -0.6038 0.4589 47 10
1.8881 1.1054 -0.5665 0.4891 47 10
1.7418 1.1054 -0.5341 0.5187 47 10
1.6112 1.1054 -0.5059 0.5477 47 10
1.5504 1.1474 -0.4994 0.6495 47 10
1.5368 1.2249 -0.5088 0.6374 47 10
1.5220 1.3050 -0.5191 0.6248 47 10
3.2025 2.9514 -1.1276 0.2630 0 7
3.0997 3.0691 -1.1294 0.2626 0 7
2.9927 3.1834 -1.1313 0.2622 0 7
2.8817 3.2942 -1.1332 0.2617 0 7
2.7667 3.4013 -1.1352 0.2613 0 7
2.6479 3.5047 -1.1373 0.2608 0 7
2.5254 3.6040 -1.1394 0.2603 0 7
2.3993 3.6993 -1.1416 0.2598 0 7
2.2698 3.7904 -1.1439 0.2593 0 7
2.1369 3.8771 -1.1462 0.2588 0 7
2.0008 3.9593 -1.1486 0.2582 0 7
1.8616 4.0370 -1.1510 0.2577 0 7
1.7195 4.1099 -1.1535 0.2571 0 7
1.5746 4.1780 -1.1560 0.2566 0 7
1.4271 4.2411 -1.1586 0.2560 0 7
1.2772 4.2992 -1.1612 0.2554 0 7
1.1249 4.3521 -1.1639 0.2548 0 7
0.9705 4.3998 -1.1666 0.2543 0 7
0.8142 4.4421 -1.1693 0.2537 0 7
0.6561 4.4790 -1.1721 0.2531 0 7
0.4964 4.5103 -1.1749 0.2525 0 7
0.3354 4.5360 -1.1777 0.2519 0 7
0.1731 4.5561 -1.1805 0.2513 0 7
-3.6557 2.4596 -1.2473 0.2584 0 7
-3.7462 2.3300 -1.2489 0.2581 0 7
-3.8318 2.1969 -1.2504 0.2578 0 7
-3.9124 2.0606 -1.2518 0.2575 0 7
-3.9879 1.9211 -1.2531 0.2572 0 7
-4.0582 1.7788 -1.2544 0.2570 0 7
-4.1230 1.6338 -1.2555 0.2567 0 7
-4.1823 1.4862 -1.2565 0.2565 0 7
-4.2360 1.3365 -1.2575 0.2563 0 7
-4.2840 1.1847 -1.2583 0.2562 0 7
-4.3262 1.0311 -1.2590 0.2560 0 7
-4.3626 0.8759 -1.2597 0.2559 0 7
-4.3930 0.7194 -1.2602 0.2558 0 7
-4.4175 0.5617 -1.2606 0.2557 0 7
-4.4359 0.4032 -1.2609 0.2556 0 7
-4.4482 0.2441 -1.2612 0.2556 0 7
-4.4545 0.0846 -1.2613 0.2556 0 7
-4.4547 -0.0750 -1.2613 0.2556 0 7
-4.4488 -0.2345 -1.2612 0.2556 0 7
-4.4368 -0.3936 -1.2610 0.2556 0 7
-4.4187 -0.5522 -1.2606 0.2557 0 7
-4.3947 -0.7098 -1.2602 0.2558 0 7
-4.3646 -0.8664 -1.2597 0.2559 0 7
-4.3286 -1.0217 -1.2591 0.2560 0 7
-4.2867 -1.1754 -1.2583 0.2562 0 6
-4.2391 -1.3273 -1.2575 0.2563 0 7
-4.1857 -1.4772 -1.2566 0.2565 0 7
-4.1267 -1.6249 -1.2555 0.2567 0 7
-3.9877 -1.7376 -1.2314 0.4247 0 8
-3.6571 -1.7520 -1.1480 0.4556 0 8
-3.4379 -1.8011 -1.0987 0.2575 0 8
-3.3674 -1.9210 -1.0975 0.2578 0 14
-3.2925 -2.0379 -1.0962 0.2581 0 14
-3.2133 -2.1518 -1.0948 0.2584 0 14
-3.1300 -2.2625 -1.0933 0.2587 0 14
-2.6436 -2.0590 -0.9486 0.2589 0 19
-2.5148 -2.1077 -0.9289 0.9228 0 19
-2.8567 -2.5740 -1.0886 0.2599 0 14
-2.7583 -2.6704 -1.0869 0.2603 0 14
-2.6566 -2.7630 -1.0851 0.2607 0 14
-2.5516 -2.8516 -1.0833 0.2611 0 14
-2.4435 -2.9360 -1.0814 0.2616 0 14
-2.3326 -3.0162 -1.0794 0.2621 0 14
-2.2190 -3.0922 -1.0774 0.2626 0 14
-2.1028 -3.1637 -1.0754 0.2631 0 14
-1.2756 -2.0769 -0.6900 0.5672 0 19
-1.1674 -2.0630 -0.6710 0.9565 0 19
-1.1026 -2.1224 -0.6771 0.7425 0 19
-1.6166 -3.4045 -1.0669 0.2651 0 14
-1.4905 -3.4531 -1.0647 0.2657 0 14
-1.3630 -3.4970 -1.0625 0.2662 0 14
-1.2343 -3.5360 -1.0603 0.2668 0 14
-1.1044 -3.5703 -1.0580 0.2674 0 14
-0.9737 -3.5998 -1.0557 0.2680 0 14
-0.8423 -3.6245 -1.0534 0.2685 0 14
-0.7104 -3.6444 -1.0511 0.2691 0 14
-0.5781 -3.6594 -1.0488 0.2697 0 14
-0.4457 -3.6697 -1.0465 0.2703 0 14
-0.3133 -3.6752 -1.0442 0.2709 0 14
-0.1810 -3.6759 -1.0419 0.2715 0 14
-0.0491 -3.6719 -1.0396 0.2721 0 14
0.0822 -3.6632 -1.0373 0.2727 0 14
0.1216 -2.0839 -0.5909 0.9088 0 19
0.1939 -2.0544 -0.5842 0.9193 0 19
0.2714 -2.0768 -0.5929 0.8368 0 19
0.5993 -3.5824 -1.0283 0.2751 0 14
0.7237 -3.5413 -1.0232 0.5372 0 5
0.8506 -3.5153 -1.0239 0.2763 0 14
0.9739 -3.4752 -1.0217 0.2769 0 14
1.0955 -3.4310 -1.0196 0.2775 0 14
1.2152 -3.3826 -1.0175 0.2780 0 14
1.3329 -3.3301 -1.0154 0.2786 0 14
1.4484 -3.2737 -1.0134 0.2791 0 14
1.5617 -3.2135 -1.0115 0.2797 0 14
1.6726 -3.1494 -1.0095 0.2802 0 14
1.7810 -3.0817 -1.0076 0.2807 0 14
1.8868 -3.0104 -1.0058 0.2813 0 14
1.9899 -2.9356 -1.0040 0.2818 0 14
1.5311 -2.0932 -0.7342 0.8202 0 19
1.6173 -2.0526 -0.7398 0.9229 0 19
2.2817 -2.6915 -0.9989 0.2832 0 14
2.3728 -2.6039 -0.9973 0.2837 0 14
2.4608 -2.5134 -0.9958 0.2841 0 14
2.5454 -2.4200 -0.9943 0.2845 0 14
2.6267 -2.3239 -0.9929 0.2849 0 14
2.7046 -2.2253 -0.9915 0.2853 0 14
2.7789 -2.1242 -0.9902 0.2857 0 14
2.8497 -2.0208 -0.9890 0.2860 0 14
2.9205 -1.9176 -0.9891 0.5759 0 8
2.9802 -1.8074 -0.9867 0.2867 0 8
3.1405 -1.7540 -1.0183 0.5136 0 8
3.3988 -1.7415 -1.0811 0.4838 0 8
3.5863 -1.6783 -1.1209 0.2876 0 7
3.6410 -1.5474 -1.1200 0.2878 0 7
3.6912 -1.4149 -1.1191 0.2880 0 7
1.5860 -0.5436 -0.4746 0.7426 47 10
1.5916 -0.4826 -0.4708 0.7487 47 10
1.5964 -0.4222 -0.4675 0.7540 47 10
1.6006 -0.3625 -0.4646 0.7587 47 10
1.6632 -0.3145 -0.4792 0.1788 47 10
2.0660 -0.3145 -0.5916 0.1448 47 10
3.9133 -0.4530 -1.1152 0.2890 0 7
3.9262 -0.3125 -1.1150 0.2891 0 7
3.9343 -0.1716 -1.1148 0.2891 0 7
3.9377 -0.0306 -1.1148 0.2891 0 7
3.9364 0.1105 -1.1148 0.2891 0 7
3.9303 0.2515 -1.1149 0.2891 0 7
3.9194 0.3922 -1.1151 0.2891 0 7
3.9038 0.5324 -1.1154 0.2890 0 7
3.8835 0.6721 -1.1157 0.2889 0 7
3.8584 0.8111 -1.1162 0.2888 0 7
3.8287 0.9493 -1.1167 0.2886 0 7
3.7943 1.0864 -1.1173 0.2885 0 7
3.7552 1.2223 -1.1180 0.2883 0 7
3.7115 1.3570 -1.1187 0.2881 0 7
3.6633 1.4902 -1.1196 0.2879 0 7
3.6105 1.6218 -1.1205 0.2877 0 7
2.1562 1.0629 -0.6805 0.7126 47 10
2.0534 1.1054 -0.6602 0.4561 47 10
1.8881 1.1054 -0.6194 0.4861 47 10
1.7418 1.1054 -0.5840 0.5156 47 10
1.6112 1.1054 -0.5531 0.5443 47 10
1.5084 1.1164 -0.5312 0.7978 47 10
1.5007 1.1962 -0.5433 0.7802 47 10
1.4922 1.2794 -0.5564 0.7617 47 10
2.9409 2.7103 -1.1322 0.2847 0 7
2.8461 2.8180 -1.1338 0.2843 0 7
2.7475 2.9226 -1.1356 0.2838 0 7
2.6452 3.0239 -1.1373 0.2834 0 7
2.5393 3.1218 -1.1392 0.2829 0 7
2.4299 3.2161 -1.1411 0.2825 0 7
2.3171 3.3068 -1.1431 0.2820 0 7
2.2011 3.3936 -1.1451 0.2815 0 7
2.0819 3.4766 -1.1472 0.2810 0 7
1.9597 3.5556 -1.1493 0.2805 0 7
1.8345 3.6304 -1.1515 0.2799 0 7
1.7066 3.7009 -1.1537 0.2794 0 7
1.5761 3.7671 -1.1560 0.2788 0 7
1.4430 3.8288 -1.1583 0.2783 0 7
1.3076 3.8859 -1.1607 0.2777 0 7
1.1700 3.9384 -1.1631 0.2771 0 7
1.0303 3.9861 -1.1655 0.2765 0 7
0.8887 4.0290 -1.1680 0.2760 0 7
0.7454 4.0669 -1.1705 0.2754 0 7
0.6006 4.0999 -1.1730 0.2748 0 7
0.4543 4.1277 -1.1756 0.2742 0 7
0.3068 4.1504 -1.1782 0.2736 0 7
0.1583 4.1679 -1.1808 0.2730 0 7
-3.3503 2.2541 -1.2420 0.2801 0 7
-3.4328 2.1351 -1.2434 0.2798 0 7
-3.5110 2.0130 -1.2448 0.2795 0 7
-3.5845 1.8879 -1.2461 0.2792 0 7
-3.6534 1.7599 -1.2473 0.2789 0 7
-3.7174 1.6294 -1.2484 0.2787 0 7
-3.7765 1.4965 -1.2494 0.2784 0 7
-3.8305 1.3612 -1.2504 0.2782 0 7
-3.8795 1.2240 -1.2512 0.2780 0 7
-3.9232 1.0849 -1.2520 0.2779 0 7
-3.9617 0.9442 -1.2527 0.2777 0 7
-3.9948 0.8020 -1.2532 0.2776 0 7
-4.0226 0.6587 -1.2537 0.2775 0 7
-4.0448 0.5143 -1.2541 0.2774 0 7
-4.0616 0.3692 -1.2544 0.2773 0 7
-4.0729 0.2235 -1.2546 0.2773 0 7
-4.0786 0.0775 -1.2547 0.2773 0 7
-4.0787 -0.0686 -1.2547 0.2773 0 7
-4.0734 -0.2147 -1.2546 0.2773 0 7
-4.0624 -0.3604 -1.2544 0.2773 0 7
-4.0460 -0.5056 -1.2541 0.2774 0 7
-4.0241 -0.6500 -1.2538 0.2775 0 7
-3.9967 -0.7934 -1.2533 0.2776 0 7
-3.9639 -0.9356 -1.2527 0.2777 0 7
-3.9257 -1.0764 -1.2520 0.2779 0 7
-3.8823 -1.2156 -1.2513 0.2780 0 6
-3.8337 -1.3530 -1.2504 0.2782 0 7
-3.7799 -1.4883 -1.2495 0.2784 0 7
-3.7211 -1.6214 -1.2485 0.2786 0 7
-3.6229 -1.7356 -1.2356 0.4568 0 8
-3.3381 -1.7489 -1.1591 0.4870 0 8
-3.0926 -1.7642 -1.0951 0.5325 0 8
-3.0171 -1.8675 -1.0914 0.2798 0 8
-2.9449 -1.9721 -1.0901 0.2801 0 14
-2.8688 -2.0737 -1.0888 0.2804 0 14
-2.6452 -2.0603 -1.0313 0.2571 0 19
-2.5138 -2.1068 -1.0088 0.9171 0 19
-2.6193 -2.3601 -1.0844 0.2815 0 14
-2.5294 -2.4488 -1.0829 0.2820 0 14
-2.4364 -2.5340 -1.0812 0.2824 0 14
-2.3405 -2.6156 -1.0796 0.2828 0 14
-2.2417 -2.6935 -1.0778 0.2833 0 14
-2.1402 -2.7675 -1.0761 0.2837 0 14
-2.0363 -2.8376 -1.0743 0.2842 0 14
-1.9300 -2.9037 -1.0724 0.2847 0 14
-1.2760 -2.0774 -0.7499 0.5632 0 19
-1.1672 -2.0626 -0.7290 0.9503 0 19
-1.1020 -2.1213 -0.7353 0.7379 0 19
-1.4847 -3.1267 -1.0646 0.2868 0 14
-1.3691 -3.1719 -1.0626 0.2873 0 14
-1.2522 -3.2127 -1.0606 0.2879 0 14
-1.1341 -3.2492 -1.0585 0.2884 0 14
-1.0150 -3.2813 -1.0564 0.2890 0 14
-0.8951 -3.3089 -1.0543 0.2896 0 14
-0.7744 -3.3322 -1.0522 0.2902 0 14
-0.6532 -3.3511 -1.0501 0.2908 0 14
-0.5317 -3.3655 -1.0480 0.2913 0 14
-0.4100 -3.3755 -1.0459 0.2919 0 14
-0.2882 -3.3812 -1.0437 0.2925 0 14
-0.1666 -3.3824 -1.0416 0.2931 0 14
-0.0452 -3.3793 -1.0395 0.2937 0 14
0.0757 -3.3719 -1.0374 0.2943 0 14
0.1216 -2.0843 -0.6422 0.9026 0 19
0.1939 -2.0547 -0.6348 0.9131 0 19
0.2713 -2.0764 -0.6441 0.8314 0 19
0.5520 -3.2999 -1.0291 0.2967 0 14
0.6686 -3.2715 -1.0270 0.2973 0 14
0.7838 -3.2391 -1.0250 0.2979 0 14
0.8976 -3.2027 -1.0230 0.2984 0 14
1.0098 -3.1625 -1.0211 0.2990 0 14
1.1203 -3.1184 -1.0192 0.2996 0 14
1.2290 -3.0705 -1.0173 0.3001 0 14
1.3357 -3.0190 -1.0154 0.3007 0 14
1.4404 -2.9638 -1.0136 0.3012 0 14
1.5429 -2.9052 -1.0118 0.3018 0 14
1.6432 -2.8432 -1.0100 0.3023 0 14
1.7410 -2.7778 -1.0083 0.3028 0 14
1.8363 -2.7091 -1.0067 0.3033 0 14
1.5318 -2.0942 -0.7980 0.8144 0 19
1.6176 -2.0529 -0.8039 0.9166 0 19
2.1065 -2.4848 -1.0019 0.3047 0 14
2.1909 -2.4042 -1.0005 0.3052 0 14
2.2724 -2.3209 -0.9990 0.3056 0 14
2.3508 -2.2350 -0.9977 0.3060 0 14
2.4262 -2.1465 -0.9964 0.3064 0 14
2.4983 -2.0556 -0.9951 0.3068 0 14
2.5672 -1.9624 -0.9939 0.3072 0 14
2.6329 -1.8670 -0.9928 0.3075 0 8
2.6951 -1.7696 -0.9917 0.3079 0 8
2.8872 -1.7511 -1.0386 0.5435 0 8
3.1145 -1.7395 -1.0972 0.5144 0 8
3.2598 -1.6703 -1.1266 0.3088 0 7
3.3147 -1.5512 -1.1257 0.3091 0 7
3.3655 -1.4303 -1.1248 0.3093 0 7
3.4121 -1.3079 -1.1240 0.3095 0 7
1.5458 -0.5298 -0.5026 0.7569 47 10
1.5514 -0.4704 -0.4986 0.7629 47 10
1.5564 -0.4116 -0.4952 0.7683 47 10
1.5607 -0.3535 -0.4922 0.7729 47 10
1.6632 -0.3145 -0.5206 0.1776 47 10
2.0660 -0.3145 -0.6428 0.1438 47 10
3.6183 -0.4188 -1.1204 0.3105 0 7
3.6303 -0.2889 -1.1201 0.3106 0 7
3.6379 -0.1587 -1.1200 0.3106 0 7
3.6411 -0.0283 -1.1200 0.3106 0 7
3.6399 0.1022 -1.1200 0.3106 0 7
3.6342 0.2325 -1.1201 0.3106 0 7
3.6241 0.3626 -1.1203 0.3105 0 7
3.6096 0.4923 -1.1205 0.3105 0 7
3.5907 0.6215 -1.1208 0.3104 0 7
3.5674 0.7500 -1.1212 0.3103 0 7
3.5398 0.8776 -1.1217 0.3101 0 7
3.5078 1.0044 -1.1223 0.3100 0 7
3.4716 1.1300 -1.1229 0.3098 0 7
3.4310 1.2544 -1.1236 0.3096 0 7
3.3862 1.3775 -1.1244 0.3094 0 7
3.3373 1.4990 -1.1253 0.3092 0 7
2.1815 1.0754 -0.7481 0.6997 47 10
2.0534 1.1054 -0.7173 0.4531 47 10
1.8881 1.1054 -0.6729 0.4829 47 10
1.7418 1.1054 -0.6345 0.5121 47 10
1.6112 1.1054 -0.6010 0.5407 47 10
1.4935 1.1054 -0.5715 0.5686 47 10
1.4765 1.1769 -0.5808 0.7877 47 10
1.4676 1.2584 -0.5946 0.7693 47 10
1.4579 1.3436 -0.6098 0.7502 47 10
2.6283 2.6024 -1.1376 0.3058 0 7
2.5369 2.6986 -1.1392 0.3054 0 7
2.4422 2.7918 -1.1409 0.3049 0 7
2.3441 2.8818 -1.1426 0.3045 0 7
2.2429 2.9685 -1.1444 0.3040 0 7
2.1385 3.0518 -1.1462 0.3035 0 7
2.0311 3.1316 -1.1481 0.3030 0 7
1.9209 3.2077 -1.1500 0.3025 0 7
1.8078 3.2801 -1.1520 0.3020 0 7
1.6921 3.3486 -1.1540 0.3015 0 7
1.5739 3.4131 -1.1560 0.3009 0 7
1.4533 3.4736 -1.1581 0.3004 0 7
1.3304 3.5300 -1.1603 0.2998 0 7
1.2053 3.5821 -1.1625 0.2993 0 7
1.0783 3.6299 -1.1647 0.2987 0 7
0.9494 3.6733 -1.1669 0.2981 0 7
0.8188 3.7121 -1.1692 0.2975 0 7
0.6867 3.7465 -1.1715 0.2969 0 7
0.5532 3.7762 -1.1739 0.2964 0 7
0.4184 3.8011 -1.1762 0.2958 0 7
0.2825 3.8214 -1.1786 0.2952 0 7
0.1458 3.8368 -1.1810 0.2946 0 7
-1.5758 1.0602 -0.6313 0.3876 47 10
-3.1645 1.9682 -1.2388 0.3013 0 7
-3.2362 1.8555 -1.2400 0.3010 0 7
-3.3037 1.7400 -1.2412 0.3007 0 7
-3.3669 1.6220 -1.2423 0.3005 0 7
-3.4257 1.5016 -1.2433 0.3002 0 7
-3.4799 1.3789 -1.2443 0.3000 0 7
-3.5296 1.2543 -1.2451 0.2998 0 7
-3.5745 1.1278 -1.2459 0.2996 0 7
-3.6146 0.9996 -1.2466 0.2994 0 7
-3.6499 0.8699 -1.2472 0.2993 0 7
-3.6803 0.7389 -1.2478 0.2991 0 7
-3.7057 0.6068 -1.2482 0.2990 0 7
-3.7261 0.4738 -1.2486 0.2990 0 7
-3.7415 0.3401 -1.2488 0.2989 0 7
-3.7518 0.2059 -1.2490 0.2989 0 7
-3.7571 0.0714 -1.2491 0.2988 0 7
-3.7572 -0.0632 -1.2491 0.2988 0 7
-3.7523 -0.1978 -1.2490 0.2988 0 7
-3.7423 -0.3320 -1.2488 0.2989 0 7
-3.7272 -0.4657 -1.2486 0.2990 0 7
-3.7071 -0.5988 -1.2482 0.2990 0 7
-3.6820 -0.7309 -1.2478 0.2991 0 7
-3.6519 -0.8620 -1.2473 0.2993 0 7
-1.4665 -0.4021 -0.5055 0.4841 47 10
-1.4732 -0.4613 -0.5131 0.4769 47 10
-1.4809 -0.5226 -0.5220 0.4688 47 10
-3.4831 -1.3715 -1.2443 0.3000 0 7
-3.4291 -1.4942 -1.2434 0.3002 0 7
-3.3706 -1.6148 -1.2423 0.3005 0 7
-3.3077 -1.7329 -1.2413 0.3007 0 7
-3.0602 -1.7458 -1.1711 0.5172 0 8
-2.8378 -1.7565 -1.1094 0.5459 0 8
-2.7149 -1.8180 -1.0861 0.3016 0 8
-2.6513 -1.9165 -1.0875 0.6066 0 8
-2.5718 -2.0031 -1.0836 0.3023 0 14
-2.4953 -2.0914 -1.0823 0.3027 0 14
-2.4157 -2.1766 -1.0809 0.3031 0 14
-2.3331 -2.2587 -1.0794 0.3035 0 14
-2.2476 -2.3376 -1.0779 0.3039 0 14
-2.1593 -2.4132 -1.0764 0.3043 0 14
-2.0684 -2.4853 -1.0748 0.3048 0 14
-1.9751 -2.5539 -1.0732 0.3053 0 14
-1.8794 -2.6190 -1.0715 0.3057 0 14
-1.7815 -2.6803 -1.0698 0.3062 0 14
-1.2763 -2.0780 -0.8106 0.5590 0 19
-1.1670 -2.0623 -0.7877 0.9436 0 19
-1.1015 -2.1202 -0.7942 0.7330 0 19
-1.3712 -2.8878 -1.0626 0.3083 0 14
-1.2647 -2.9300 -1.0608 0.3088 0 14
-1.1569 -2.9681 -1.0589 0.3094 0 14
-1.0479 -3.0022 -1.0570 0.3099 0 14
-0.9380 -3.0323 -1.0551 0.3105 0 14
-0.8273 -3.0584 -1.0532 0.3111 0 14
-0.7159 -3.0803 -1.0512 0.3116 0 14
-0.6039 -3.0982 -1.0493 0.3122 0 14
-0.4917 -3.1121 -1.0473 0.3128 0 14
-0.3792 -3.1218 -1.0453 0.3134 0 14
-0.2666 -3.1275 -1.0434 0.3140 0 14
-0.1541 -3.1291 -1.0414 0.3146 0 14
-0.0418 -3.1268 -1.0394 0.3152 0 14
0.0701 -3.1204 -1.0375 0.3158 0 14
0.1216 -2.0851 -0.6943 0.4131 0 19
0.1940 -2.0551 -0.6862 0.9064 0 19
0.2713 -2.0760 -0.6960 0.8256 0 19
0.5112 -3.0555 -1.0298 0.3181 0 14
0.6192 -3.0297 -1.0279 0.3187 0 14
0.7260 -3.0001 -1.0260 0.3193 0 14
0.8315 -2.9669 -1.0242 0.3199 0 14
0.9355 -2.9300 -1.0224 0.3204 0 14
1.0381 -2.8895 -1.0206 0.3210 0 14
1.1389 -2.8456 -1.0188 0.3215 0 14
1.2380 -2.7982 -1.0171 0.3221 0 14
1.3352 -2.7474 -1.0154 0.3226 0 14
1.4305 -2.6934 -1.0137 0.3232 0 14
1.5236 -2.6362 -1.0121 0.3237 0 14
1.6145 -2.5759 -1.0105 0.3242 0 14
1.7031 -2.5126 -1.0090 0.3247 0 14
1.5325 -2.0952 -0.8629 0.8082 0 19
1.6178 -2.0533 -0.8689 0.9099 0 19
1.9543 -2.3053 -1.0046 0.3261 0 14
2.0328 -2.2308 -1.0032 0.3265 0 14
2.1087 -2.1537 -1.0019 0.3270 0 14
2.1817 -2.0742 -1.0006 0.3274 0 14
2.2518 -1.9922 -0.9994 0.3278 0 14
2.3276 -1.9151 -1.0019 0.6584 0 8
2.3832 -1.8217 -0.9971 0.3285 0 8
2.4786 -1.7577 -1.0100 0.5996 0 8
2.6623 -1.7481 -1.0587 0.5721 0 8
2.8645 -1.7373 -1.1136 0.5439 0 8
2.9722 -1.6600 -1.1316 0.3298 0 7
3.0272 -1.5512 -1.1307 0.3301 0 7
3.0784 -1.4406 -1.1298 0.3304 0 7
3.1257 -1.3284 -1.1290 0.3306 0 7
3.1692 -1.2148 -1.1282 0.3309 0 6
1.5090 -0.5172 -0.5303 0.9256 47 10
1.5128 -0.4587 -0.5255 0.7768 47 10
1.5179 -0.4014 -0.5219 0.7821 47 10
1.5223 -0.3448 -0.5188 0.7867 47 10
1.6632 -0.3145 -0.5626 0.1763 47 10
2.0660 -0.3145 -0.6947 0.1428 47 10
2.1737 -0.2516 -0.7274 0.7721 47 10
3.3727 -0.2684 -1.1246 0.3319 0 7
3.3798 -0.1474 -1.1245 0.3319 0 7
3.3827 -0.0263 -1.1245 0.3319 0 7
3.3816 0.0949 -1.1245 0.3319 0 7
3.3763 0.2160 -1.1246 0.3319 0 7
3.3669 0.3369 -1.1247 0.3319 0 7
3.3533 0.4573 -1.1250 0.3318 0 7
3.3357 0.5773 -1.1253 0.3317 0 7
3.3140 0.6967 -1.1257 0.3316 0 7
3.2882 0.8153 -1.1261 0.3315 0 7
3.2584 0.9330 -1.1266 0.3313 0 7
3.2246 1.0496 -1.1272 0.3311 0 7
3.1868 1.1651 -1.1279 0.3309 0 7
3.1451 1.2794 -1.1286 0.3307 0 7
3.0994 1.3922 -1.1294 0.3305 0 7
2.1828 1.0760 -0.8089 0.8494 47 10
2.0534 1.1054 -0.7752 0.4498 47 10
1.8881 1.1054 -0.7273 0.4794 47 10
1.7418 1.1054 -0.6857 0.5085 47 10
1.6112 1.1054 -0.6495 0.5368 47 10
1.4936 1.1054 -0.6176 0.5645 47 10
1.4529 1.1581 -0.6176 0.7947 47 10
1.4435 1.2377 -0.6321 0.7765 47 10
1.4336 1.3212 -0.6480 0.7428 47 10
2.4391 2.4150 -1.1409 0.3272 0 7
2.3540 2.5041 -1.1424 0.3267 0 7
2.2659 2.5903 -1.1440 0.3263 0 7
2.1747 2.6735 -1.1456 0.3258 0 7
2.0805 2.7536 -1.1472 0.3254 0 7
1.9834 2.8305 -1.1489 0.3249 0 7
1.8836 2.9042 -1.1506 0.3244 0 7
1.7812 2.9744 -1.1524 0.3239 0 7
1.6761 3.0411 -1.1543 0.3234 0 7
1.5687 3.1043 -1.1561 0.3229 0 7
1.4589 3.1637 -1.1581 0.3223 0 7
1.3469 3.2193 -1.1600 0.3218 0 7
1.2328 3.2711 -1.1620 0.3212 0 7
1.1168 3.3190 -1.1640 0.3207 0 7
0.9990 3.3628 -1.1661 0.3201 0 7
0.8794 3.4025 -1.1682 0.3195 0 7
0.7584 3.4380 -1.1703 0.3190 0 7
0.6359 3.4693 -1.1724 0.3184 0 7
0.5122 3.4962 -1.1746 0.3178 0 7
0.3873 3.5189 -1.1768 0.3172 0 7
0.2615 3.5371 -1.1790 0.3166 0 7
0.1349 3.5508 -1.1812 0.3160 0 7
-1.6121 1.0846 -0.6948 0.7257 47 10
-2.9318 1.8235 -1.2347 0.3227 0 7
-2.9981 1.7189 -1.2358 0.3224 0 7
-3.0604 1.6118 -1.2369 0.3221 0 7
-3.1187 1.5024 -1.2380 0.3219 0 7
-3.1730 1.3908 -1.2389 0.3216 0 7
-3.2230 1.2772 -1.2398 0.3214 0 7
-3.2688 1.1616 -1.2406 0.3212 0 7
-3.3103 1.0444 -1.2413 0.3210 0 7
-3.3473 0.9256 -1.2419 0.3208 0 7
-3.3799 0.8055 -1.2425 0.3207 0 7
-3.4079 0.6842 -1.2430 0.3206 0 7
-3.4313 0.5619 -1.2434 0.3205 0 7
-3.4502 0.4387 -1.2437 0.3204 0 7
-3.4644 0.3149 -1.2440 0.3203 0 7
-3.4739 0.1906 -1.2442 0.3203 0 7
-3.4787 0.0661 -1.2442 0.3202 0 7
-3.4789 -0.0586 -1.2442 0.3202 0 7
-3.4743 -0.1831 -1.2442 0.3203 0 7
-3.4651 -0.3074 -1.2440 0.3203 0 7
-3.4512 -0.4312 -1.2438 0.3204 0 7
-3.4326 -0.5544 -1.2434 0.3204 0 7
-1.5036 -0.2985 -0.5482 0.4765 47 10
-1.3325 -0.3145 -0.4896 0.2163 47 10
-1.2903 -0.3538 -0.4784 0.1364 47 10
-1.2581 -0.3940 -0.4715 0.1384 47 10
-1.2306 -0.4343 -0.4667 0.4894 47 10
-1.2195 -0.4802 -0.4687 0.4873 47 10
-1.2072 -0.5260 -0.4709 0.4850 47 10
-3.1221 -1.4957 -1.2380 0.3219 0 7
-3.0641 -1.6053 -1.2370 0.3221 0 7
-3.0020 -1.7125 -1.2359 0.3224 0 7
-2.8153 -1.7426 -1.1840 0.5460 0 8
-2.6172 -1.7526 -1.1264 0.5740 0 8
-2.4510 -1.7717 -1.0815 0.3234 0 8
-2.3833 -1.8563 -1.0803 0.3237 0 8
-2.3127 -1.9383 -1.0791 0.3241 0 14
-2.2391 -2.0175 -1.0778 0.3245 0 14
-2.1627 -2.0938 -1.0765 0.3249 0 14
-2.0836 -2.1671 -1.0751 0.3253 0 14
-2.0020 -2.2374 -1.0737 0.3257 0 14
-1.9180 -2.3045 -1.0722 0.3262 0 14
-1.8316 -2.3684 -1.0707 0.3266 0 14
-1.7431 -2.4290 -1.0691 0.3271 0 14
-1.6525 -2.4862 -1.0676 0.3276 0 14
-1.2767 -2.0786 -0.8723 0.5546 0 19
-1.1668 -2.0619 -0.8472 0.9365 0 19
-1.1009 -2.1191 -0.8540 0.7277 0 19
-1.2725 -2.6800 -1.0609 0.3296 0 14
-1.1738 -2.7194 -1.0592 0.3302 0 14
-1.0739 -2.7552 -1.0575 0.3307 0 14
-0.9729 -2.7872 -1.0557 0.3313 0 14
-0.8709 -2.8155 -1.0539 0.3318 0 14
-0.7682 -2.8401 -1.0521 0.3324 0 14
-0.6649 -2.8608 -1.0503 0.3330 0 14
-0.5610 -2.8778 -1.0485 0.3335 0 14
-0.4567 -2.8911 -1.0467 0.3341 0 14
-0.3523 -2.9005 -1.0449 0.3347 0 14
-0.2477 -2.9062 -1.0430 0.3353 0 14
-0.1432 -2.9081 -1.0412 0.3359 0 14
-0.0389 -2.9063 -1.0394 0.3365 0 14
0.0651 -2.9007 -1.0376 0.3370 0 14
0.1218 -2.0870 -0.7476 0.4095 0 19
0.1940 -2.0554 -0.7383 0.8992 0 19
0.2712 -2.0756 -0.7486 0.8193 0 19
0.4754 -2.8419 -1.0304 0.3394 0 14
0.5759 -2.8183 -1.0287 0.3400 0 14
0.6754 -2.7911 -1.0269 0.3405 0 14
0.7736 -2.7605 -1.0252 0.3411 0 14
0.8706 -2.7265 -1.0235 0.3417 0 14
0.9661 -2.6892 -1.0218 0.3422 0 14
1.0601 -2.6486 -1.0202 0.3428 0 14
1.1525 -2.6048 -1.0186 0.3433 0 14
1.2431 -2.5579 -1.0170 0.3439 0 14
1.3319 -2.5079 -1.0155 0.3444 0 14
1.4188 -2.4549 -1.0139 0.3449 0 14
1.5036 -2.3990 -1.0125 0.3454 0 14
1.5863 -2.3402 -1.0110 0.3459 0 14
1.5332 -2.0962 -0.9287 0.8015 0 19
1.6181 -2.0536 -0.9350 0.9027 0 19
1.8208 -2.1478 -1.0069 0.3473 0 14
1.8941 -2.0786 -1.0057 0.3477 0 14
1.9650 -2.0069 -1.0044 0.3482 0 14
2.0332 -1.9330 -1.0032 0.3486 0 14
2.0987 -1.8568 -1.0021 0.3490 0 8
2.1615 -1.7785 -1.0010 0.3494 0 8
2.2947 -1.7540 -1.0329 0.6260 0 8
2.4607 -1.7450 -1.0788 0.5993 0 8
2.6422 -1.7349 -1.1303 0.5720 0 8
2.7164 -1.6475 -1.1361 0.3507 0 7
2.7713 -1.5478 -1.1351 0.3510 0 7
2.8228 -1.4464 -1.1342 0.3513 0 7
2.8706 -1.3434 -1.1334 0.3516 0 7
2.9149 -1.2388 -1.1326 0.3518 0 6
2.9556 -1.1329 -1.1319 0.3520 0 7
1.4882 -0.5101 -0.5626 0.9313 47 10
1.4916 -0.4522 -0.5574 0.9400 47 10
1.4945 -0.3953 -0.5528 0.9478 47 10
1.4970 -0.3391 -0.5489 0.9545 47 10
1.6632 -0.3145 -0.6053 0.1750 47 10
2.0660 -0.3145 -0.7473 0.1417 47 10
2.1827 -0.2527 -0.7857 0.9335 47 10
3.1460 -0.2504 -1.1286 0.3531 0 7
3.1527 -0.1375 -1.1285 0.3531 0 7
3.1554 -0.0245 -1.1284 0.3531 0 7
3.1543 0.0886 -1.1285 0.3531 0 7
3.1494 0.2015 -1.1285 0.3531 0 7
3.1406 0.3142 -1.1287 0.3530 0 7
3.1279 0.4266 -1.1289 0.3530 0 7
3.1114 0.5385 -1.1292 0.3529 0 7
3.0911 0.6498 -1.1296 0.3528 0 7
3.0670 0.7604 -1.1300 0.3526 0 7
3.0391 0.8702 -1.1305 0.3525 0 7
3.0074 0.9789 -1.1310 0.3523 0 7
2.9721 1.0866 -1.1316 0.3521 0 7
2.9330 1.1931 -1.1323 0.3519 0 7
2.8903 1.2982 -1.1331 0.3517 0 7
2.1831 1.0762 -0.8704 0.8427 47 10
2.0534 1.1054 -0.8340 0.4463 47 10
1.8881 1.1054 -0.7824 0.4757 47 10
1.7418 1.1054 -0.7377 0.5045 47 10
1.6112 1.1054 -0.6987 0.5327 47 10
1.4935 1.1054 -0.6645 0.5602 47 10
1.4323 1.1417 -0.6550 0.7845 47 10
1.4290 1.2253 -0.6732 0.7633 47 10
1.4254 1.3137 -0.6932 0.7413 47 10
2.2729 2.2505 -1.1438 0.3484 0 6
2.1935 2.3333 -1.1452 0.3479 0 7
2.1112 2.4134 -1.1467 0.3475 0 7
2.0260 2.4907 -1.1482 0.3470 0 7
1.9381 2.5651 -1.1497 0.3466 0 7
1.8475 2.6365 -1.1513 0.3461 0 7
1.7543 2.7048 -1.1529 0.3456 0 7
1.6587 2.7699 -1.1546 0.3451 0 7
1.5607 2.8317 -1.1563 0.3446 0 7
1.4605 2.8902 -1.1580 0.3441 0 7
1.3581 2.9452 -1.1598 0.3436 0 7
1.2537 2.9967 -1.1616 0.3430 0 7
1.1474 3.0445 -1.1635 0.3425 0 7
1.0393 3.0886 -1.1654 0.3419 0 7
0.9295 3.1290 -1.1673 0.3414 0 7
0.8182 3.1656 -1.1692 0.3408 0 7
0.7055 3.1982 -1.1712 0.3402 0 7
0.5915 3.2269 -1.1732 0.3396 0 7
0.4763 3.2516 -1.1752 0.3391 0 7
0.3602 3.2722 -1.1772 0.3385 0 7
0.2431 3.2887 -1.1793 0.3379 0 7
0.1254 3.3010 -1.1813 0.3373 0 7
-1.6197 1.0897 -0.7481 0.7162 47 10
-2.7280 1.6967 -1.2311 0.3439 0 7
-2.7895 1.5993 -1.2322 0.3436 0 7
-2.8473 1.4996 -1.2332 0.3434 0 7
-2.9014 1.3977 -1.2342 0.3431 0 7
-2.9517 1.2938 -1.2350 0.3429 0 7
-2.9981 1.1880 -1.2358 0.3426 0 7
-3.0406 1.0805 -1.2366 0.3424 0 7
-3.0790 0.9714 -1.2373 0.3422 0 7
-3.1133 0.8609 -1.2379 0.3421 0 7
-3.1435 0.7492 -1.2384 0.3419 0 7
-3.1695 0.6363 -1.2388 0.3418 0 7
-3.1912 0.5226 -1.2392 0.3417 0 7
-3.2087 0.4080 -1.2395 0.3416 0 7
-3.2218 0.2929 -1.2398 0.3416 0 7
-3.2307 0.1773 -1.2399 0.3415 0 7
-3.2351 0.0615 -1.2400 0.3415 0 7
-3.2353 -0.0545 -1.2400 0.3415 0 7
-3.2310 -0.1703 -1.2399 0.3415 0 7
-3.2225 -0.2859 -1.2398 0.3416 0 7
-3.2096 -0.4011 -1.2395 0.3416 0 7
-3.1924 -0.5156 -1.2392 0.3417 0 7
-1.5552 -0.3087 -0.6076 0.4569 47 10
-1.3325 -0.3145 -0.5247 0.2145 47 10
-1.1920 -0.3269 -0.4737 0.5124 47 10
-1.1834 -0.3706 -0.4752 0.5107 47 10
-1.1737 -0.4142 -0.4770 0.5088 47 10
-1.1629 -0.4579 -0.4789 0.5067 47 10
-1.1509 -0.5015 -0.4811 0.5045 47 10
-1.1378 -0.5451 -0.4835 0.5020 47 10
-2.8507 -1.4935 -1.2333 0.3434 0 7
-2.7931 -1.5933 -1.2323 0.3436 0 7
-2.7318 -1.6909 -1.2312 0.3439 0 7
-2.5973 -1.7393 -1.1979 0.5736 0 8
-2.4192 -1.7487 -1.1439 0.6006 0 8
-2.2559 -1.7571 -1.0958 0.6270 0 8
-2.1525 -1.8041 -1.0763 0.3453 0 8
-2.0842 -1.8779 -1.0751 0.3457 0 8
-2.0133 -1.9491 -1.0739 0.3461 0 14
-1.9398 -2.0176 -1.0726 0.3465 0 14
-1.8640 -2.0832 -1.0713 0.3469 0 14
-1.7859 -2.1459 -1.0699 0.3474 0 14
-1.7057 -2.2056 -1.0685 0.3478 0 14
-1.6234 -2.2622 -1.0671 0.3483 0 14
-1.5392 -2.3157 -1.0656 0.3488 0 14
-1.2770 -2.0792 -0.9351 0.5498 0 19
-1.1666 -2.0616 -0.9078 0.9289 0 19
-1.1003 -2.1179 -0.9146 0.7220 0 19
-1.1858 -2.4973 -1.0594 0.3508 0 14
-1.0939 -2.5343 -1.0578 0.3513 0 14
-1.0009 -2.5679 -1.0562 0.3519 0 14
-0.9069 -2.5981 -1.0545 0.3524 0 14
-0.8119 -2.6248 -1.0529 0.3530 0 14
-0.7163 -2.6480 -1.0512 0.3535 0 14
-0.6200 -2.6676 -1.0495 0.3541 0 14
-0.5232 -2.6838 -1.0478 0.3547 0 14
-0.4260 -2.6965 -1.0461 0.3552 0 14
-0.3286 -2.7056 -1.0444 0.3558 0 14
-0.2311 -2.7112 -1.0427 0.3564 0 14
-0.1336 -2.7133 -1.0410 0.3570 0 14
-0.0363 -2.7119 -1.0393 0.3576 0 14
0.0608 -2.7070 -1.0377 0.3582 0 14
0.1219 -2.0890 -0.8019 0.4057 0 19
0.1940 -2.0558 -0.7913 0.8916 0 19
0.2712 -2.0752 -0.8020 0.8127 0 19
0.4439 -2.6534 -1.0310 0.3605 0 14
0.5378 -2.6316 -1.0293 0.3611 0 14
0.6307 -2.6065 -1.0277 0.3616 0 14
0.7226 -2.5783 -1.0261 0.3622 0 14
0.8132 -2.5468 -1.0245 0.3627 0 14
0.9025 -2.5122 -1.0230 0.3633 0 14
0.9904 -2.4745 -1.0214 0.3638 0 14
1.0769 -2.4339 -1.0199 0.3644 0 14
1.1617 -2.3903 -1.0184 0.3649 0 14
1.2448 -2.3438 -1.0170 0.3654 0 14
1.3261 -2.2945 -1.0156 0.3659 0 14
1.4055 -2.2424 -1.0142 0.3664 0 14
1.4829 -2.1877 -1.0128 0.3669 0 14
1.5340 -2.0972 -0.9957 0.7945 0 19
1.6184 -2.0540 -1.0021 0.8950 0 19
1.7026 -2.0084 -1.0090 0.3683 0 14
1.7713 -1.9438 -1.0078 0.3688 0 14
1.8377 -1.8770 -1.0066 0.3692 0 8
1.9016 -1.8079 -1.0055 0.3696 0 8
1.9871 -1.7580 -1.0167 0.6758 0 8
2.1273 -1.7504 -1.0557 0.6508 0 8
2.2787 -1.7418 -1.0991 0.6251 0 8
2.4290 -1.7225 -1.1411 0.3711 0 7
2.4869 -1.6329 -1.1401 0.3714 0 7
2.5417 -1.5415 -1.1392 0.3717 0 7
2.5932 -1.4483 -1.1383 0.3720 0 7
2.6415 -1.3535 -1.1374 0.3723 0 7
2.6864 -1.2571 -1.1366 0.3725 0 6
2.7280 -1.1594 -1.1359 0.3728 0 7
2.7661 -1.0603 -1.1352 0.3730 0 7
1.4677 -0.5031 -0.5946 0.9365 47 10
1.4712 -0.4460 -0.5891 0.9451 47 10
1.4742 -0.3899 -0.5844 0.9528 47 10
1.4769 -0.3345 -0.5803 0.9595 47 10
1.6632 -0.3145 -0.6487 0.1735 47 10
2.0660 -0.3145 -0.8009 0.1405 47 10
2.1830 -0.2527 -0.8421 0.9256 47 10
2.9449 -0.2344 -1.1321 0.3740 0 7
2.9511 -0.1287 -1.1320 0.3741 0 7
2.9537 -0.0229 -1.1320 0.3741 0 7
2.9527 0.0829 -1.1320 0.3741 0 7
2.9481 0.1886 -1.1321 0.3741 0 7
2.9398 0.2941 -1.1322 0.3740 0 7
2.9279 0.3993 -1.1324 0.3739 0 7
2.9124 0.5041 -1.1327 0.3738 0 7
2.8933 0.6082 -1.1330 0.3737 0 7
2.8707 0.7117 -1.1334 0.3736 0 7
2.8445 0.8144 -1.1339 0.3735 0 7
2.8148 0.9162 -1.1344 0.3733 0 7
2.7816 1.0170 -1.1350 0.3731 0 7
2.7449 1.1166 -1.1356 0.3729 0 7
2.7048 1.2149 -1.1363 0.3727 0 7
2.1835 1.0764 -0.9329 0.8356 47 10
2.0534 1.1054 -0.8937 0.4426 47 10
1.8881 1.1054 -0.8384 0.4718 47 10
1.7418 1.1054 -0.7906 0.5003 47 10
1.6112 1.1054 -0.7488 0.5283 47 10
1.4935 1.1054 -0.7121 0.5555 47 10
1.4245 1.1355 -0.6981 0.7822 47 10
1.4211 1.2184 -0.7173 0.7612 47 10
1.4172 1.3061 -0.7386 0.7394 47 10
2.1258 2.1048 -1.1464 0.3694 0 7
2.0514 2.1821 -1.1477 0.3689 0 7
1.9742 2.2568 -1.1491 0.3685 0 6
1.8944 2.3289 -1.1504 0.3681 0 7
1.8120 2.3983 -1.1519 0.3676 0 7
1.7271 2.4648 -1.1534 0.3671 0 7
1.6399 2.5284 -1.1549 0.3667 0 7
1.5504 2.5890 -1.1565 0.3662 0 7
1.4587 2.6466 -1.1581 0.3657 0 7
1.3649 2.7009 -1.1597 0.3651 0 7
1.2691 2.7520 -1.1614 0.3646 0 7
1.1714 2.7998 -1.1631 0.3641 0 7
1.0719 2.8442 -1.1648 0.3635 0 7
0.9708 2.8852 -1.1666 0.3630 0 7
0.8682 2.9226 -1.1684 0.3624 0 7
0.7641 2.9564 -1.1702 0.3619 0 7
0.6588 2.9866 -1.1720 0.3613 0 7
0.5523 3.0130 -1.1739 0.3607 0 7
0.4447 3.0357 -1.1758 0.3601 0 7
0.3362 3.0546 -1.1776 0.3596 0 7
0.2269 3.0696 -1.1796 0.3590 0 7
0.1170 3.0808 -1.1815 0.3584 0 7
-1.6275 1.0950 -0.8028 0.7065 47 10
-2.5478 1.5846 -1.2280 0.3650 0 7
-2.6050 1.4936 -1.2290 0.3647 0 7
-2.6589 1.4004 -1.2299 0.3644 0 7
-2.7093 1.3052 -1.2308 0.3642 0 7
-2.7561 1.2081 -1.2316 0.3639 0 7
-2.7994 1.1093 -1.2324 0.3637 0 7
-2.8389 1.0088 -1.2331 0.3635 0 7
-2.8747 0.9070 -1.2337 0.3633 0 7
-2.9066 0.8038 -1.2343 0.3632 0 7
-2.9347 0.6994 -1.2347 0.3630 0 7
-2.9589 0.5941 -1.2352 0.3629 0 7
-2.9791 0.4878 -1.2355 0.3628 0 7
-2.9954 0.3809 -1.2358 0.3627 0 7
-3.0076 0.2734 -1.2360 0.3626 0 7
-3.0158 0.1655 -1.2362 0.3626 0 7
-3.0200 0.0574 -1.2362 0.3626 0 7
-3.0201 -0.0508 -1.2362 0.3626 0 7
-3.0162 -0.1590 -1.2362 0.3626 0 7
-3.0082 -0.2669 -1.2360 0.3626 0 7
-2.9962 -0.3744 -1.2358 0.3627 0 7
-1.6057 -0.2593 -0.6657 0.4414 47 10
-1.6087 -0.3193 -0.6712 0.8450 47 10
-1.3325 -0.3145 -0.5603 0.2126 47 10
-1.1470 -0.3145 -0.4868 0.2447 47 10
-1.1304 -0.3540 -0.4848 0.5299 47 10
-1.1210 -0.3956 -0.4865 0.5280 47 10
-1.1104 -0.4372 -0.4884 0.5260 47 10
-1.0988 -0.4788 -0.4905 0.5237 47 10
-1.0885 -0.5215 -0.4940 0.7701 47 10
-2.6621 -1.3947 -1.2300 0.3644 0 7
-2.6084 -1.4880 -1.2290 0.3647 0 7
-2.5514 -1.5792 -1.2280 0.3650 0 7
-2.4910 -1.6681 -1.2270 0.3653 0 7
-2.4015 -1.7359 -1.2128 0.5997 0 8
-2.2401 -1.7448 -1.1621 0.6258 0 8
-2.0912 -1.7527 -1.1167 0.6513 0 8
-1.9556 -1.7621 -1.0774 0.6974 0 8
-1.8810 -1.8211 -1.0715 0.3671 0 8
-1.8126 -1.8852 -1.0704 0.3675 0 8
-1.7419 -1.9467 -1.0691 0.3680 0 14
-1.6690 -2.0054 -1.0678 0.3684 0 14
-1.5942 -2.0614 -1.0665 0.3688 0 14
-1.5174 -2.1145 -1.0652 0.3693 0 14
-1.4388 -2.1647 -1.0638 0.3698 0 14
-1.2774 -2.0798 -0.9989 0.5448 0 19
-1.1664 -2.0612 -0.9693 0.9208 0 19
-1.0997 -2.1168 -0.9763 0.7160 0 19
-1.1089 -2.3353 -1.0581 0.3718 0 14
-1.0231 -2.3702 -1.0566 0.3723 0 14
-0.9362 -2.4019 -1.0551 0.3729 0 14
-0.8483 -2.4303 -1.0535 0.3734 0 14
-0.7596 -2.4555 -1.0520 0.3739 0 14
-0.6701 -2.4775 -1.0504 0.3745 0 14
-0.5801 -2.4962 -1.0488 0.3751 0 14
-0.4896 -2.5115 -1.0473 0.3756 0 14
-0.3987 -2.5236 -1.0457 0.3762 0 14
-0.3076 -2.5324 -1.0441 0.3768 0 14
-0.2163 -2.5380 -1.0425 0.3773 0 14
-0.1251 -2.5402 -1.0409 0.3779 0 14
-0.0340 -2.5392 -1.0393 0.3785 0 14
0.0569 -2.5349 -1.0377 0.3791 0 14
0.1220 -2.0910 -0.8572 0.4017 0 19
0.1941 -2.0562 -0.8453 0.8835 0 19
0.2711 -2.0748 -0.8564 0.8056 0 19
0.4158 -2.4857 -1.0315 0.3814 0 14
0.5039 -2.4655 -1.0299 0.3820 0 14
0.5910 -2.4422 -1.0284 0.3825 0 14
0.6771 -2.4160 -1.0269 0.3831 0 14
0.7621 -2.3867 -1.0254 0.3836 0 14
0.8459 -2.3545 -1.0239 0.3842 0 14
0.9284 -2.3194 -1.0225 0.3847 0 14
1.0095 -2.2815 -1.0211 0.3853 0 14
1.0890 -2.2409 -1.0197 0.3858 0 14
1.1671 -2.1975 -1.0183 0.3863 0 14
1.2434 -2.1514 -1.0170 0.3868 0 14
1.3180 -2.1028 -1.0157 0.3873 0 14
1.3907 -2.0517 -1.0144 0.3878 0 14
1.4615 -1.9981 -1.0132 0.3883 0 14
1.5303 -1.9422 -1.0120 0.3887 0 14
1.5971 -1.8840 -1.0108 0.3892 0 8
1.6617 -1.8235 -1.0097 0.3896 0 8
1.7276 -1.7645 -1.0107 0.7434 0 8
1.8448 -1.7539 -1.0418 0.6981 0 8
1.9741 -1.7466 -1.0788 0.6742 0 8
2.1130 -1.7385 -1.1199 0.6494 0 8
2.2221 -1.6986 -1.1447 0.3916 0 7
2.2795 -1.6165 -1.1437 0.3919 0 7
2.3340 -1.5325 -1.1428 0.3922 0 7
2.3855 -1.4468 -1.1419 0.3925 0 7
2.4340 -1.3594 -1.1410 0.3928 0 7
2.4795 -1.2705 -1.1402 0.3931 0 6
2.5217 -1.1801 -1.1395 0.3934 0 6
2.5608 -1.0883 -1.1388 0.3936 0 7
1.4432 -0.5532 -0.6326 0.9317 47 10
1.4473 -0.4961 -0.6262 0.9412 47 10
1.4510 -0.4399 -0.6205 0.9498 47 10
1.4541 -0.3846 -0.6156 0.9574 47 10
1.4569 -0.3300 -0.6114 0.9641 47 10
1.6632 -0.3145 -0.6928 0.1720 47 10
2.0660 -0.3145 -0.8553 0.1393 47 10
2.1833 -0.2527 -0.8995 0.9172 47 10
2.7651 -0.2201 -1.1353 0.3948 0 7
2.7709 -0.1209 -1.1351 0.3949 0 7
2.7734 -0.0215 -1.1351 0.3949 0 7
2.7724 0.0778 -1.1351 0.3949 0 7
2.7680 0.1771 -1.1352 0.3948 0 7
2.7602 0.2762 -1.1353 0.3948 0 7
2.7490 0.3749 -1.1355 0.3947 0 7
2.7345 0.4733 -1.1358 0.3946 0 7
2.7165 0.5711 -1.1361 0.3945 0 7
2.6952 0.6682 -1.1365 0.3944 0 7
2.6705 0.7646 -1.1369 0.3942 0 7
2.6426 0.8602 -1.1374 0.3941 0 7
2.6113 0.9547 -1.1379 0.3939 0 7
2.5768 1.0482 -1.1385 0.3937 0 7
2.5391 1.1405 -1.1392 0.3935 0 7
2.4982 1.2315 -1.1399 0.3932 0 7
2.0534 1.1054 -0.9544 0.4387 47 10
1.8881 1.1054 -0.8954 0.4676 47 10
1.7418 1.1054 -0.8443 0.4959 47 10
1.6112 1.1054 -0.7997 0.5236 47 10
1.4935 1.1054 -0.7605 0.5506 47 10
1.4167 1.1292 -0.7415 0.7796 47 10
1.4130 1.2116 -0.7618 0.7588 47 10
1.4090 1.2985 -0.7842 0.7371 47 10
1.9944 1.9748 -1.1487 0.3902 0 7
1.9245 2.0471 -1.1499 0.3898 0 7
1.8519 2.1171 -1.1512 0.3894 0 7
1.7769 2.1845 -1.1525 0.3889 0 7
1.6995 2.2494 -1.1539 0.3885 0 6
1.6198 2.3116 -1.1552 0.3880 0 6
1.5379 2.3711 -1.1567 0.3875 0 7
1.4538 2.4277 -1.1581 0.3870 0 7
1.3677 2.4815 -1.1596 0.3865 0 7
1.2796 2.5322 -1.1612 0.3860 0 7
1.1897 2.5799 -1.1627 0.3855 0 7
1.0980 2.6245 -1.1643 0.3850 0 7
1.0047 2.6658 -1.1660 0.3844 0 7
0.9099 2.7040 -1.1676 0.3839 0 7
0.8136 2.7387 -1.1693 0.3833 0 7
0.7160 2.7702 -1.1710 0.3828 0 7
0.6172 2.7981 -1.1727 0.3822 0 7
0.5174 2.8227 -1.1745 0.3816 0 7
0.4166 2.8436 -1.1762 0.3811 0 7
0.3149 2.8610 -1.1780 0.3805 0 7
0.2125 2.8748 -1.1798 0.3799 0 7
0.1096 2.8850 -1.1816 0.3793 0 7
-1.6356 1.1004 -0.8591 0.6963 47 10
-2.3872 1.4847 -1.2252 0.3859 0 7
-2.4407 1.3993 -1.2261 0.3856 0 7
-2.4910 1.3120 -1.2270 0.3853 0 7
-2.5381 1.2227 -1.2278 0.3850 0 7
-2.5819 1.1317 -1.2286 0.3848 0 7
-2.6223 1.0391 -1.2293 0.3846 0 7
-2.6592 0.9450 -1.2299 0.3844 0 7
-2.6926 0.8495 -1.2305 0.3842 0 7
-2.7225 0.7529 -1.2310 0.3840 0 7
-2.7487 0.6551 -1.2315 0.3839 0 7
-2.7713 0.5564 -1.2319 0.3838 0 7
-2.7902 0.4569 -1.2322 0.3837 0 7
-2.8054 0.3567 -1.2325 0.3836 0 7
-2.8168 0.2561 -1.2327 0.3835 0 7
-2.8245 0.1550 -1.2328 0.3835 0 7
-2.8284 0.0537 -1.2329 0.3835 0 7
-2.8285 -0.0476 -1.2329 0.3835 0 7
-2.8248 -0.1489 -1.2328 0.3835 0 7
-2.8174 -0.2499 -1.2327 0.3835 0 7
-2.8062 -0.3507 -1.2325 0.3836 0 7
-1.6146 -0.2608 -0.7128 0.8393 47 10
-1.6153 -0.3207 -0.7177 0.8335 47 10
-1.3325 -0.3145 -0.5967 0.2106 47 10
-1.1470 -0.3145 -0.5183 0.2424 47 10
-1.0857 -0.3400 -0.4958 0.8093 47 10
-1.0803 -0.3813 -0.4993 0.8037 47 10
-1.0743 -0.4230 -0.5032 0.7975 47 10
-1.0675 -0.4652 -0.5075 0.7907 47 10
-1.0601 -0.5079 -0.5123 0.7833 47 10
-1.0519 -0.5511 -0.5175 0.7753 47 10
-2.4438 -1.3941 -1.2262 0.3856 0 7
-2.3905 -1.4796 -1.2252 0.3859 0 7
-2.3341 -1.5630 -1.2243 0.3862 0 7
-2.2747 -1.6443 -1.2232 0.3865 0 7
-2.2123 -1.7231 -1.2221 0.3868 0 7
-2.0770 -1.7407 -1.1811 0.6495 0 8
-1.9403 -1.7482 -1.1382 0.6740 0 8
-1.8127 -1.7550 -1.0996 0.6976 0 8
-1.6990 -1.7671 -1.0684 0.3884 0 8
-1.6329 -1.8249 -1.0672 0.3888 0 8
-1.5647 -1.8801 -1.0660 0.3892 0 8
-1.4947 -1.9327 -1.0648 0.3897 0 14
-1.4228 -1.9827 -1.0635 0.3901 0 14
-1.3492 -2.0299 -1.0623 0.3906 0 14
-1.2741 -2.0744 -1.0610 0.3911 0 14
-1.1662 -2.0609 -1.0320 0.9122 0 19
-1.0991 -2.1156 -1.0390 0.7096 0 19
-1.0402 -2.1906 -1.0569 0.3926 0 14
-0.9598 -2.2235 -1.0555 0.3931 0 14
-0.8783 -2.2534 -1.0540 0.3937 0 14
-0.7959 -2.2803 -1.0526 0.3942 0 14
-0.7128 -2.3042 -1.0512 0.3947 0 14
-0.6289 -2.3250 -1.0497 0.3953 0 14
-0.5444 -2.3427 -1.0482 0.3958 0 14
-0.4595 -2.3574 -1.0467 0.3964 0 14
-0.3743 -2.3690 -1.0452 0.3970 0 14
-0.2888 -2.3775 -1.0438 0.3975 0 14
-0.2031 -2.3829 -1.0423 0.3981 0 14
-0.1175 -2.3852 -1.0408 0.3987 0 14
-0.0319 -2.3844 -1.0393 0.3992 0 14
0.0534 -2.3806 -1.0378 0.3998 0 14
0.1221 -2.0931 -0.9137 0.3975 0 19
0.1941 -2.0565 -0.9003 0.8749 0 19
0.2711 -2.0744 -0.9117 0.7981 0 19
0.3907 -2.3353 -1.0319 0.4021 0 14
0.4734 -2.3165 -1.0304 0.4027 0 14
0.5553 -2.2949 -1.0290 0.4032 0 14
0.6363 -2.2704 -1.0276 0.4038 0 14
0.7162 -2.2431 -1.0262 0.4043 0 14
0.7951 -2.2130 -1.0248 0.4049 0 14
0.8727 -2.1803 -1.0235 0.4054 0 14
0.9490 -2.1448 -1.0221 0.4059 0 14
1.0239 -2.1067 -1.0208 0.4065 0 14
1.0973 -2.0661 -1.0196 0.4070 0 14
1.1692 -2.0230 -1.0183 0.4075 0 14
1.2394 -1.9774 -1.0171 0.4080 0 14
1.3079 -1.9295 -1.0159 0.4084 0 14
1.3746 -1.8793 -1.0147 0.4089 0 8
1.4394 -1.8268 -1.0136 0.4094 0 8
1.5023 -1.7721 -1.0125 0.4098 0 8
1.6000 -1.7558 -1.0353 0.7410 0 8
1.7130 -1.7496 -1.0671 0.7189 0 8
1.8330 -1.7427 -1.1023 0.6959 0 8
1.9611 -1.7351 -1.1412 0.6722 0 8
2.0341 -1.6737 -1.1480 0.4118 0 7
2.0910 -1.5983 -1.1470 0.4122 0 7
2.1451 -1.5212 -1.1461 0.4125 0 7
2.1965 -1.4422 -1.1452 0.4128 0 7
2.2451 -1.3616 -1.1443 0.4131 0 7
2.2908 -1.2794 -1.1435 0.4134 0 6
2.3336 -1.1958 -1.1428 0.4137 0 6
2.3735 -1.1107 -1.1421 0.4140 0 7
2.4104 -1.0244 -1.1414 0.4142 0 7
1.4301 -0.5482 -0.6675 0.9134 47 10
1.4315 -0.4907 -0.6595 0.9244 47 10
1.4328 -0.4344 -0.6525 0.9344 47 10
1.4342 -0.3793 -0.6466 0.9615 47 10
1.4371 -0.3255 -0.6422 0.9681 47 10
1.6632 -0.3145 -0.7377 0.1703 47 10
2.0660 -0.3145 -0.9108 0.1380 47 10
2.5944 -0.3003 -1.1382 0.4154 0 7
2.6031 -0.2072 -1.1381 0.4154 0 7
2.6087 -0.1138 -1.1380 0.4154 0 7
2.6110 -0.0203 -1.1379 0.4155 0 7
2.6101 0.0733 -1.1380 0.4155 0 7
2.6059 0.1667 -1.1380 0.4154 0 7
2.5986 0.2600 -1.1382 0.4154 0 7
2.5880 0.3530 -1.1383 0.4153 0 7
2.5743 0.4455 -1.1386 0.4152 0 7
2.5573 0.5376 -1.1389 0.4151 0 7
2.5372 0.6291 -1.1392 0.4150 0 7
2.5139 0.7198 -1.1396 0.4148 0 7
2.4875 0.8097 -1.1401 0.4147 0 7
2.4580 0.8987 -1.1406 0.4145 0 7
2.4255 0.9866 -1.1412 0.4143 0 7
2.3899 1.0735 -1.1418 0.4141 0 7
2.3513 1.1591 -1.1425 0.4138 0 7
2.0534 1.1054 -1.0163 0.4345 47 10
1.8881 1.1054 -0.9535 0.4632 47 10
1.7418 1.1054 -0.8991 0.4912 47 10
1.6112 1.1054 -0.8516 0.5186 47 10
1.4936 1.1054 -0.8098 0.5454 47 10
1.4088 1.1229 -0.7852 0.7765 47 10
1.4129 1.2114 -0.8111 0.5953 47 10
1.4194 1.3081 -0.8412 0.5740 47 10
1.8763 1.8578 -1.1508 0.4108 0 7
1.8104 1.9258 -1.1519 0.4104 0 7
1.7420 1.9914 -1.1531 0.4100 0 7
1.6714 2.0548 -1.1543 0.4096 0 7
1.5985 2.1156 -1.1556 0.4091 0 7
1.5234 2.1740 -1.1569 0.4086 0 7
1.4462 2.2298 -1.1583 0.4082 0 7
1.3670 2.2829 -1.1597 0.4077 0 7
1.2860 2.3332 -1.1611 0.4072 0 7
1.2031 2.3807 -1.1625 0.4067 0 7
1.1184 2.4254 -1.1640 0.4062 0 7
1.0322 2.4671 -1.1655 0.4056 0 7
0.9444 2.5058 -1.1670 0.4051 0 7
0.8551 2.5414 -1.1686 0.4046 0 7
0.7646 2.5738 -1.1702 0.4040 0 7
0.6728 2.6031 -1.1718 0.4035 0 7
0.5800 2.6292 -1.1734 0.4029 0 7
0.4861 2.6520 -1.1750 0.4023 0 7
0.3913 2.6714 -1.1767 0.4018 0 7
0.2958 2.6875 -1.1784 0.4012 0 7
0.1996 2.7003 -1.1800 0.4006 0 7
0.1029 2.7095 -1.1817 0.4001 0 7
-1.6439 1.1060 -0.9171 0.6858 47 10
-2.2430 1.3950 -1.2227 0.4066 0 7
-2.2931 1.3147 -1.2235 0.4063 0 7
-2.3403 1.2326 -1.2244 0.4060 0 7
-2.3845 1.1487 -1.2251 0.4057 0 7
-2.4255 1.0632 -1.2259 0.4055 0 7
-2.4634 0.9761 -1.2265 0.4053 0 7
-2.4980 0.8877 -1.2271 0.4051 0 7
-2.5293 0.7980 -1.2277 0.4049 0 7
-2.5573 0.7072 -1.2282 0.4047 0 7
-2.5819 0.6153 -1.2286 0.4046 0 7
-2.6030 0.5226 -1.2290 0.4045 0 7
-2.6207 0.4291 -1.2293 0.4044 0 7
-2.6350 0.3351 -1.2295 0.4043 0 7
-2.6457 0.2405 -1.2297 0.4042 0 7
-2.6529 0.1456 -1.2298 0.4042 0 7
-2.6565 0.0505 -1.2299 0.4042 0 7
-2.6566 -0.0447 -1.2299 0.4042 0 7
-2.6532 -0.1398 -1.2298 0.4042 0 7
-2.6462 -0.2348 -1.2297 0.4042 0 7
-2.6357 -0.3294 -1.2295 0.4043 0 7
-1.6214 -0.2619 -0.7603 0.8273 47 10
-1.6222 -0.3220 -0.7655 0.8216 47 10
-1.3325 -0.3145 -0.6337 0.2085 47 10
-1.1470 -0.3145 -0.5505 0.2400 47 10
-1.0584 -0.3314 -0.5134 0.8218 47 10
-1.0530 -0.3716 -0.5169 0.8162 47 10
-1.0469 -0.4122 -0.5208 0.8101 47 10
-1.0401 -0.4532 -0.5252 0.8034 47 10
-1.0326 -0.4947 -0.5300 0.7960 47 10
-1.0243 -0.5367 -0.5353 0.7882 47 10
-2.2961 -1.3098 -1.2236 0.4062 0 7
-2.2461 -1.3902 -1.2227 0.4065 0 7
-2.1932 -1.4687 -1.2218 0.4068 0 7
-2.1375 -1.5451 -1.2208 0.4072 0 7
-2.0790 -1.6193 -1.2198 0.4075 0 7
-2.0179 -1.6912 -1.2187 0.4079 0 7
-1.9273 -1.7366 -1.2009 0.6716 0 8
-1.8011 -1.7437 -1.1604 0.6951 0 8
-1.6826 -1.7501 -1.1238 0.7177 0 8
-1.5711 -1.7558 -1.0906 0.7395 0 8
-1.4710 -1.7674 -1.0644 0.4099 0 8
-1.4052 -1.8170 -1.0632 0.4103 0 8
-1.3377 -1.8641 -1.0621 0.4108 0 8
-1.2731 -1.9154 -1.0646 0.8252 0 8
-1.1981 -1.9506 -1.0596 0.4117 0 14
-1.1261 -1.9899 -1.0584 0.4122 0 14
-1.0528 -2.0265 -1.0571 0.4127 0 14
-0.9783 -2.0604 -1.0558 0.4132 0 14
-0.9028 -2.0915 -1.0545 0.4137 0 14
-0.8262 -2.1198 -1.0531 0.4142 0 14
-0.7488 -2.1453 -1.0518 0.4148 0 14
-0.6706 -2.1679 -1.0504 0.4153 0 14
-0.5918 -2.1877 -1.0490 0.4159 0 14
-0.5123 -2.2046 -1.0477 0.4164 0 14
-0.4325 -2.2185 -1.0463 0.4170 0 14
-0.3522 -2.2296 -1.0449 0.4175 0 14
-0.2718 -2.2378 -1.0435 0.4181 0 14
-0.1912 -2.2431 -1.0421 0.4187 0 14
-0.1106 -2.2454 -1.0406 0.4192 0 14
-0.0300 -2.2449 -1.0392 0.4198 0 14
0.0503 -2.2415 -1.0378 0.4204 0 14
0.1222 -2.0952 -0.9715 0.3931 0 19
0.1941 -2.0569 -0.9564 0.8660 0 19
0.2710 -2.0740 -0.9682 0.7903 0 19
0.3680 -2.1996 -1.0323 0.4226 0 14
0.4459 -2.1821 -1.0309 0.4232 0 14
0.5231 -2.1619 -1.0296 0.4237 0 14
0.5995 -2.1390 -1.0282 0.4243 0 14
0.6748 -2.1134 -1.0269 0.4248 0 14
0.7491 -2.0853 -1.0256 0.4254 0 14
0.8223 -2.0545 -1.0244 0.4259 0 14
0.8943 -2.0213 -1.0231 0.4264 0 14
0.9650 -1.9855 -1.0219 0.4269 0 14
1.0342 -1.9474 -1.0207 0.4274 0 14
1.1066 -1.9147 -1.0237 0.8582 0 8
1.1683 -1.8641 -1.0183 0.4284 0 8
1.2330 -1.8190 -1.0172 0.4289 0 8
1.2959 -1.7718 -1.0161 0.4294 0 8
1.3841 -1.7566 -1.0352 0.7792 0 8
1.4845 -1.7511 -1.0626 0.7590 0 8
1.5903 -1.7452 -1.0929 0.7380 0 8
1.7023 -1.7387 -1.1263 0.7161 0 8
1.8037 -1.7148 -1.1520 0.4315 0 7
1.8624 -1.6477 -1.1510 0.4319 0 7
1.9185 -1.5786 -1.1500 0.4322 0 7
1.9722 -1.5076 -1.1491 0.4326 0 7
2.0234 -1.4349 -1.1482 0.4329 0 7
2.0720 -1.3605 -1.1473 0.4332 0 7
2.1179 -1.2845 -1.1465 0.4335 0 6
2.1611 -1.2070 -1.1458 0.4338 0 6
2.2016 -1.1281 -1.1451 0.4341 0 7
2.2393 -1.0479 -1.1444 0.4343 0 7
2.2742 -0.9665 -1.1438 0.4346 0 7
1.4232 -0.5455 -0.7055 0.9086 47 10
1.4247 -0.4883 -0.6971 0.9195 47 10
1.4260 -0.4324 -0.6898 0.9293 47 10
1.4272 -0.3775 -0.6833 0.9381 47 10
1.4282 -0.3235 -0.6778 0.9457 47 10
1.6632 -0.3145 -0.7835 0.1686 47 10
2.0660 -0.3145 -0.9674 0.1366 47 10
2.4482 -0.2834 -1.1408 0.4357 0 7
2.4564 -0.1955 -1.1406 0.4358 0 7
2.4617 -0.1074 -1.1405 0.4358 0 7
2.4638 -0.0191 -1.1405 0.4358 0 7
2.4630 0.0691 -1.1405 0.4358 0 7
2.4591 0.1573 -1.1406 0.4358 0 7
2.4521 0.2453 -1.1407 0.4358 0 7
2.4421 0.3331 -1.1409 0.4357 0 7
2.4291 0.4204 -1.1411 0.4356 0 7
2.4131 0.5073 -1.1414 0.4355 0 7
2.3941 0.5936 -1.1417 0.4354 0 7
2.3721 0.6792 -1.1421 0.4352 0 7
2.3471 0.7640 -1.1425 0.4351 0 7
2.3192 0.8479 -1.1430 0.4349 0 7
2.2884 0.9309 -1.1436 0.4347 0 7
2.2548 1.0128 -1.1442 0.4344 0 7
2.2183 1.0935 -1.1448 0.4342 0 7
2.1790 1.1730 -1.1455 0.4339 0 7
1.8881 1.1054 -1.0127 0.4585 47 10
1.7418 1.1054 -0.9549 0.4863 47 10
1.6112 1.1054 -0.9044 0.5134 47 10
1.4936 1.1054 -0.8601 0.5399 47 10
1.4192 1.1312 -0.8401 0.6044 47 10
1.4255 1.2223 -0.8692 0.5841 47 10
1.4326 1.3202 -0.9018 0.5630 47 10
